# This PCD file was generated using the MATLAB® pcwrite function
# from Computer Vision Toolbox®.
# .PCD v.7 - Point Cloud Data file format
VERSION .7
FIELDS x y z intensity
SIZE 4 4 4 1
TYPE F F F U
COUNT 1 1 1 1
WIDTH 1481
HEIGHT 1
VIEWPOINT 0 0 0 1 0 0 0
POINTS 1481
DATA ascii
-0.508578 4.511842 -0.569563 100
-0.660215 4.554947 -0.115699 101
-0.812928 4.585409 0.321559 75
0.212387 4.563990 -0.167535 101
0.068797 4.591903 0.263993 101
-0.075807 4.535147 -0.428757 100
-0.221833 4.570620 -0.000799 101
-0.363991 4.523346 0.357146 200
-0.511324 4.543064 -0.334926 101
-0.658366 4.547582 0.096251 101
0.213996 4.581965 -0.097685 101
0.070165 4.631175 0.337693 101
-0.075342 4.553170 -0.359991 101
-0.221811 4.586110 0.069724 101
-0.511520 4.551694 -0.264903 101
-0.661889 4.577343 0.167973 101
0.216622 4.621505 0.114687 100
-0.074572 4.552937 -0.149466 101
-0.221419 4.594023 0.282114 101
-0.362193 4.520030 -0.481399 100
-0.510680 4.551125 -0.053556 101
-0.798786 4.518906 -0.318477 5
0.217479 4.623156 0.185890 101
0.070420 4.547026 -0.509288 101
-0.073900 4.558707 -0.079583 100
-0.221560 4.613093 0.354556 101
-0.362932 4.538841 -0.412783 101
-0.512173 4.571367 0.016860 101
-0.799477 4.527257 -0.248176 72
0.217608 4.609381 0.402095 100
0.071352 4.557661 -0.298761 101
-0.073563 4.585531 0.131306 101
-0.216437 4.522292 -0.664683 101
-0.362979 4.549054 -0.202439 101
-0.512107 4.577740 0.229315 101
-0.651481 4.521474 -0.467240 101
-0.792905 4.494453 -0.035845 82
0.071993 4.549716 -0.228119 101
-0.073385 4.622942 0.203484 93
-0.216725 4.544328 -0.491823 101
-0.362100 4.547692 -0.132212 101
-0.512658 4.589653 0.301074 101
-0.654504 4.547874 -0.398755 101
-0.800482 4.541869 0.034612 100
0.075109 4.564627 -0.158624 101
-0.213252 4.531580 -0.420049 101
-0.358404 4.537446 -0.061967 101
-0.507432 4.568988 0.370680 100
-0.649031 4.530115 -0.326433 101
-0.795356 4.529498 0.105164 86
0.215546 4.473833 -0.510320 101
0.075842 4.562513 -0.088414 101
-0.069023 4.578674 0.342704 101
-0.212207 4.525574 -0.349402 101
-0.359873 4.565833 0.007994 101
-0.648903 4.534653 -0.256109 101
-0.798365 4.551128 0.176699 91
0.220095 4.552320 -0.307512 100
0.077134 4.593714 0.122715 101
-0.067378 4.520018 -0.735728 101
-0.212345 4.544870 -0.140600 101
-0.361201 4.592545 0.220471 101
-0.503051 4.543476 -0.476424 101
-0.647423 4.529748 -0.044724 101
0.222032 4.576413 -0.238518 101
0.077730 4.583283 0.192926 101
-0.066679 4.524193 -0.497931 100
-0.211098 4.534541 -0.070519 101
-0.361058 4.600628 0.291954 101
-0.501280 4.534457 -0.404747 101
-0.649508 4.549802 0.025669 101
0.223683 4.594477 -0.027297 101
0.077977 4.552660 0.412783 101
-0.066124 4.538343 -0.288740 101
-0.212671 4.584929 0.140233 101
-0.500716 4.536342 -0.193678 101
-0.652399 4.575549 0.238984 101
-0.792669 4.532099 -0.461664 2
0.225816 4.622282 0.043617 101
-0.065647 4.558233 -0.219768 101
-0.212144 4.590255 0.211076 101
-0.350228 4.481966 -0.603838 101
-0.501096 4.546796 -0.123778 101
-0.654973 4.599143 0.311815 101
-0.793034 4.538682 -0.390947 5
0.228210 4.655222 0.258948 101
0.079396 4.546200 -0.438617 101
-0.065240 4.583526 -0.009601 100
-0.352240 4.517498 -0.340703 101
-0.502611 4.567598 0.087429 101
-0.794526 4.551737 -0.178312 92
0.228183 4.638707 0.329650 86
0.080059 4.540427 -0.367764 89
-0.063901 4.543151 0.060272 101
-0.354942 4.562049 -0.273458 101
-0.502510 4.573757 0.158268 101
-0.646311 4.549284 -0.551984 78
-0.790702 4.534334 -0.106863 101
0.225646 4.540440 -0.447346 101
0.082765 4.563213 -0.018321 100
-0.062093 4.578937 0.435296 94
-0.206297 4.546670 -0.280764 101
-0.351984 4.553749 0.078128 101
-0.641392 4.531075 -0.185401 101
-0.794336 4.568797 0.248714 95
0.226130 4.534784 -0.376482 101
0.083821 4.578938 0.051957 101
-0.205162 4.538502 -0.210276 101
-0.352007 4.564033 0.148655 101
-0.492826 4.513590 -0.569563 100
-0.643192 4.549305 -0.115498 101
-0.791454 4.556765 0.319355 79
0.228717 4.571206 -0.167828 101
0.085121 4.607606 0.264911 101
-0.060029 4.539366 -0.429134 100
-0.206237 4.579358 -0.000800 101
-0.348811 4.532541 0.357773 200
-0.495895 4.548787 -0.335218 101
-0.643048 4.553813 0.096335 101
0.230590 4.593173 -0.097940 101
0.086405 4.634890 0.337984 101
-0.059396 4.549417 -0.359676 101
-0.205801 4.586856 0.069724 101
-0.496924 4.565361 -0.265596 101
-0.645907 4.579626 0.167973 101
0.231948 4.604745 0.114291 100
-0.058834 4.565162 -0.149859 101
-0.205738 4.602745 0.282604 101
-0.346413 4.521267 -0.481399 100
-0.494359 4.548903 -0.053509 101
-0.784369 4.529531 -0.319031 60
0.232203 4.594427 0.184767 101
0.086141 4.538803 -0.508398 101
-0.057885 4.550939 -0.079443 100
-0.205634 4.617822 0.354863 101
-0.347086 4.540080 -0.412783 101
-0.494918 4.561197 0.016816 101
-0.785712 4.541828 -0.248823 100
0.232889 4.592674 0.400706 100
0.087184 4.553393 -0.298500 101
-0.057707 4.597754 0.131650 101
-0.199948 4.507205 -0.662359 101
-0.347705 4.558262 -0.202794 101
-0.496986 4.587443 0.229713 101
-0.637909 4.539482 -0.468868 101
-0.778574 4.505077 -0.035908 79
0.087874 4.549437 -0.228119 101
-0.057050 4.607187 0.202781 101
-0.200510 4.537111 -0.490963 101
-0.346830 4.556901 -0.132444 101
-0.496634 4.591415 0.301074 101
-0.636963 4.538292 -0.397717 101
-0.785303 4.548577 0.034642 94
0.091043 4.564337 -0.158624 101
-0.053772 4.575615 0.271860 101
-0.197086 4.524339 -0.419311 101
-0.343165 4.546646 -0.062076 101
-0.491054 4.566767 0.370358 101
-0.631558 4.520499 -0.325579 101
-0.778862 4.528306 0.105073 89
0.231572 4.480991 -0.511226 101
0.091607 4.554224 -0.088259 101
-0.053086 4.582875 0.343002 101
-0.196581 4.530272 -0.349710 101
-0.344234 4.571050 0.008001 101
-0.631966 4.528979 -0.255663 101
-0.777735 4.526312 0.175629 100
0.235571 4.543553 -0.306974 100
0.092925 4.581423 0.122394 101
-0.051600 4.520226 -0.735728 101
-0.196652 4.549578 -0.140723 101
-0.344869 4.589794 0.220280 101
-0.487188 4.545205 -0.476424 101
-0.632712 4.539904 -0.044803 101
0.238212 4.579599 -0.238726 101
0.093728 4.582983 0.192926 101
-0.050931 4.528374 -0.498369 100
-0.195784 4.547238 -0.070705 101
-0.345892 4.613802 0.292712 101
-0.485449 4.536179 -0.404747 101
-0.635829 4.567888 0.025758 101
0.239928 4.597663 -0.027321 101
0.094032 4.560326 0.413505 101
-0.050370 4.546530 -0.289248 101
-0.196665 4.585643 0.140233 101
-0.487001 4.557931 -0.194526 101
-0.637523 4.585711 0.239397 101
-0.770124 4.495609 -0.457670 81
0.241322 4.609482 0.043504 101
-0.049517 4.538459 -0.218805 101
-0.195779 4.582983 0.210709 101
-0.335761 4.498974 -0.605968 101
-0.483101 4.528638 -0.123237 101
-0.636171 4.581636 0.310475 101
-0.772480 4.513923 -0.388580 63
0.241945 4.606537 0.256285 101
0.094931 4.529973 -0.437081 101
-0.048896 4.551727 -0.009534 100
-0.335877 4.510744 -0.340104 101
-0.484123 4.545464 0.086973 101
-0.773244 4.522964 -0.177078 89
0.245003 4.649835 0.330499 86
0.096161 4.552078 -0.368733 89
-0.048211 4.559344 0.060484 101
-0.339311 4.567242 -0.273696 101
-0.487810 4.587409 0.158681 101
-0.631517 4.559380 -0.552938 78
-0.776216 4.544950 -0.107048 101
0.241494 4.539624 -0.447346 101
0.098693 4.562896 -0.018321 100
-0.046029 4.571162 0.434539 100
-0.190258 4.543374 -0.280518 101
-0.336086 4.554950 0.078128 101
-0.624479 4.525368 -0.185077 101
-0.772349 4.536104 0.246786 101
0.243232 4.557851 -0.378465 101
0.099891 4.582616 0.052003 101
-0.188985 4.531206 -0.209906 101
-0.336367 4.569221 0.148785 101
-0.474566 4.491601 -0.566576 100
-0.626762 4.547562 -0.115397 101
-0.773536 4.547698 0.318528 94
0.244886 4.574371 -0.167975 101
0.100853 4.591311 0.263993 101
-0.044183 4.539547 -0.429134 100
-0.190748 4.592040 -0.000802 101
-0.332987 4.533731 0.357773 200
-0.478339 4.534621 -0.334049 101
-0.628238 4.563953 0.096503 101
0.246837 4.596333 -0.098026 101
0.102848 4.646525 0.338857 101
-0.043592 4.557572 -0.360306 101
-0.189789 4.587546 0.069724 101
-0.478476 4.543240 -0.264210 101
-0.629373 4.577892 0.167828 101
-0.763983 4.500697 -0.532235 15
0.247590 4.595922 0.114092 100
-0.042898 4.565340 -0.149859 101
-0.189177 4.591468 0.281870 101
-0.330629 4.522449 -0.481399 100
-0.479314 4.558557 -0.053603 101
-0.765885 4.516504 -0.317923 72
0.249965 4.625516 0.186051 101
0.102431 4.558346 -0.510624 101
-0.042036 4.555112 -0.079513 100
-0.189513 4.618512 0.354863 101
-0.331526 4.545237 -0.413144 101
-0.479411 4.566875 0.016831 101
-0.769186 4.540605 -0.248608 100
0.248919 4.591833 0.400706 100
0.103169 4.557052 -0.298761 101
-0.041621 4.593929 0.131535 101
-0.184699 4.519739 -0.664102 101
-0.330922 4.547491 -0.202262 101
-0.481386 4.593123 0.229912 101
-0.620439 4.529854 -0.467647 101
-0.762843 4.507767 -0.035908 68
0.103572 4.541114 -0.227718 101
-0.041039 4.615350 0.203133 101
-0.184510 4.533810 -0.490533 101
-0.331211 4.562072 -0.132559 101
-0.478943 4.577241 0.300033 101
-0.622198 4.548385 -0.398409 101
-0.766087 4.531571 0.034492 93
0.107162 4.571984 -0.158902 101
-0.037866 4.583761 0.272335 101
-0.182249 4.548878 -0.421524 101
-0.327005 4.543826 -0.062022 101
-0.475522 4.572419 0.370680 101
-0.617389 4.534536 -0.326433 101
-0.760394 4.515223 0.104707 100
0.246555 4.468250 -0.509867 101
0.107787 4.565871 -0.088491 101
-0.037121 4.587021 0.343301 101
-0.180925 4.534915 -0.350017 101
-0.327989 4.568233 0.007994 101
-0.615615 4.527201 -0.255439 101
-0.762594 4.532941 0.175782 101
0.252973 4.570597 -0.308858 100
0.109202 4.593063 0.122715 101
-0.035852 4.524326 -0.736370 101
-0.181246 4.562222 -0.141094 101
-0.329987 4.606910 0.221045 101
-0.471730 4.550835 -0.476838 101
-0.619552 4.561902 -0.044998 101
0.254418 4.582728 -0.238934 101
0.110491 4.614591 0.194271 101
-0.035278 4.548404 -0.500556 100
-0.180068 4.551890 -0.070767 101
-0.330354 4.622946 0.293217 101
-0.471253 4.553699 -0.406161 101
-0.619342 4.566116 0.025736 101
0.256197 4.600791 -0.027344 101
0.110046 4.563952 0.413866 101
-0.034560 4.554662 -0.289756 101
-0.180657 4.586301 0.140233 101
-0.472320 4.571529 -0.195034 101
-0.620440 4.579992 0.238984 101
-0.751135 4.478644 -0.455673 101
0.256518 4.592638 0.043353 101
-0.033734 4.546595 -0.219190 101
-0.179780 4.583639 0.210709 101
-0.319774 4.496165 -0.605436 101
-0.467701 4.534274 -0.123345 101
-0.619104 4.575919 0.309939 101
-0.758036 4.524453 -0.389256 90
0.258917 4.621614 0.257173 101
0.110743 4.529613 -0.437081 101
-0.033037 4.555870 -0.009542 100
-0.320129 4.511889 -0.340104 101
-0.469072 4.555083 0.087125 101
-0.755472 4.513809 -0.176615 96
0.260337 4.633017 0.329367 86
0.111755 4.539757 -0.367764 89
-0.032324 4.563484 0.060537 101
-0.321957 4.548484 -0.272503 101
-0.470567 4.577154 0.158268 101
-0.614005 4.549749 -0.551507 78
-0.761665 4.555521 -0.107234 101
0.256888 4.530805 -0.446562 101
0.114519 4.558525 -0.018305 100
-0.030151 4.583241 0.435675 100
-0.174245 4.540021 -0.280272 101
-0.320745 4.564074 0.078265 101
-0.609211 4.531481 -0.185239 101
-0.757167 4.542712 0.247000 101
0.259141 4.556974 -0.378465 101
0.116190 4.594235 0.052139 101
-0.173777 4.547809 -0.210645 101
-0.321254 4.582331 0.149174 101
-0.460094 4.505076 -0.568069 100
-0.610884 4.549722 -0.115397 101
-0.763556 4.585797 0.321008 100
0.261079 4.577479 -0.168121 101
0.117184 4.602907 0.264682 101
-0.028387 4.547638 -0.429887 100
-0.174566 4.588681 -0.000801 101
-0.317160 4.534866 0.357773 200
-0.463722 4.548169 -0.334926 101
-0.612303 4.566118 0.096503 101
0.262879 4.595444 -0.098026 101
0.119169 4.650126 0.339147 101
-0.027707 4.561684 -0.360621 101
-0.174531 4.608164 0.070028 101
-0.464636 4.564746 -0.265365 101
-0.613920 4.584023 0.167973 101
-0.753478 4.534691 -0.535941 84
0.265464 4.626967 0.114885 100
-0.026962 4.565462 -0.149859 101
-0.173450 4.600080 0.282359 101
-0.313460 4.503735 -0.479287 100
-0.463803 4.564181 -0.053650 101
-0.751422 4.527023 -0.318477 89
0.266109 4.624615 0.186051 101
0.117929 4.542065 -0.508843 101
-0.026227 4.571229 -0.079792 100
-0.172942 4.607189 0.353944 101
-0.314555 4.530470 -0.411699 101
-0.462660 4.560561 0.016801 101
-0.748758 4.515679 -0.247098 92
0.265405 4.598893 0.401400 100
0.119179 4.560654 -0.299023 101
-0.025741 4.622034 0.132337 101
-0.168477 4.508492 -0.662359 101
-0.315046 4.548619 -0.202262 101
-0.465752 4.598751 0.230111 101
-0.605149 4.535936 -0.468054 101
-0.747104 4.510403 -0.035908 75
0.119843 4.556700 -0.228519 101
-0.024906 4.611469 0.202957 101
-0.168535 4.530452 -0.490103 101
-0.315560 4.567189 -0.132675 101
-0.462561 4.574914 0.299773 101
-0.605264 4.542629 -0.397717 101
-0.749612 4.530272 0.034462 100
0.122130 4.563611 -0.158624 101
-0.022624 4.579868 0.272098 101
-0.165825 4.513635 -0.418205 101
-0.311366 4.536907 -0.061913 101
-0.460335 4.573973 0.370680 101
-0.599702 4.516786 -0.325010 101
-0.746698 4.525614 0.104890 101
0.262777 4.491212 -0.512584 101
0.123048 4.569486 -0.088569 101
-0.021896 4.587120 0.343301 101
-0.165873 4.535491 -0.350017 101
-0.313098 4.573288 0.008001 101
-0.600586 4.529219 -0.255439 101
-0.750145 4.551222 0.176393 101
0.267199 4.553796 -0.307781 100
0.124438 4.592676 0.122715 101
-0.020826 4.520473 -0.735728 101
-0.167129 4.590766 -0.141959 101
-0.314158 4.600008 0.220662 101
-0.455837 4.544457 -0.476009 101
-0.602840 4.552036 -0.044881 101
0.268907 4.569896 -0.238310 101
0.125245 4.594224 0.193430 101
-0.020198 4.548495 -0.500556 100
-0.164686 4.544468 -0.070643 101
-0.313397 4.600119 0.291702 101
-0.454167 4.535413 -0.404394 101
-0.604200 4.568144 0.025736 101
0.270970 4.591931 -0.027297 101
0.125388 4.571527 0.414588 101
-0.019399 4.538784 -0.288740 101
-0.165315 4.582880 0.140111 101
-0.454387 4.545233 -0.193847 101
-0.605260 4.582023 0.238984 101
-0.736291 4.481109 -0.455673 101
0.273854 4.627698 0.043693 101
-0.018676 4.546681 -0.219190 101
-0.164885 4.592196 0.211076 101
-0.304881 4.497199 -0.605436 101
-0.453872 4.547735 -0.123669 101
-0.606034 4.593771 0.311011 101
-0.743047 4.526939 -0.389256 89
0.274213 4.620732 0.257173 101
0.125736 4.529222 -0.437081 101
-0.017956 4.555954 -0.009542 100
-0.304116 4.497005 -0.338904 101
-0.452803 4.544672 0.086897 101
-0.737940 4.500507 -0.175998 99
0.276374 4.644079 0.330216 86
0.127441 4.563275 -0.369701 89
-0.017242 4.567565 0.060590 101
-0.307445 4.557492 -0.272980 101
-0.456609 4.590619 0.158681 101
-0.599986 4.559630 -0.552461 78
-0.744651 4.546176 -0.106955 101
0.272089 4.533905 -0.446954 101
0.129575 4.558122 -0.018305 100
-0.015026 4.587297 0.436053 100
-0.159389 4.544562 -0.280518 101
-0.305669 4.565109 0.078265 101
-0.593202 4.525543 -0.184915 101
-0.743446 4.553072 0.247429 101
0.273463 4.544156 -0.377473 101
0.131241 4.589828 0.052093 101
-0.158625 4.544364 -0.210461 101
-0.305593 4.575389 0.148915 101
-0.445220 4.506570 -0.568069 100
-0.595862 4.551713 -0.115397 101
-0.747129 4.580416 0.320457 101
0.276661 4.584573 -0.168414 101
0.132599 4.610479 0.265141 101
-0.013359 4.539743 -0.429134 100
-0.159565 4.593229 -0.000802 101
-0.301136 4.519972 0.356518 200
-0.448322 4.545704 -0.334634 101
-0.597754 4.572079 0.096586 101
0.277790 4.590560 -0.097940 101
0.134156 4.637745 0.338275 101
-0.012676 4.565738 -0.360936 100
-0.159059 4.600720 0.069906 101
-0.448408 4.554331 -0.264672 101
-0.598801 4.586023 0.167973 101
-0.739798 4.544994 -0.536867 95
0.281438 4.638041 0.115183 100
-0.011916 4.565526 -0.149859 101
-0.158289 4.600626 0.282359 101
-0.299141 4.512681 -0.480132 100
-0.446802 4.545783 -0.053416 101
-0.735217 4.521597 -0.317923 100
0.281098 4.619724 0.185890 101
0.133354 4.557546 -0.510624 101
-0.011199 4.583288 -0.080002 100
-0.157629 4.603748 0.353638 101
-0.299893 4.535457 -0.412060 101
-0.448417 4.570022 0.016831 101
-0.732599 4.510236 -0.246667 91
0.278845 4.570151 0.398970 100
0.134075 4.556247 -0.298761 101
-0.010434 4.582110 0.131192 101
-0.153500 4.505066 -0.661778 101
-0.300070 4.549631 -0.202262 101
-0.449442 4.588331 0.229514 101
-0.589187 4.530012 -0.467240 101
-0.731610 4.508889 -0.035877 94
0.134599 4.548294 -0.228119 101
-0.009758 4.623514 0.203484 99
-0.154032 4.542905 -0.491393 101
-0.300794 4.572193 -0.132791 101
-0.449060 4.592301 0.300813 101
-0.590315 4.544596 -0.397717 101
-0.736622 4.544559 0.034552 101
0.137939 4.559161 -0.158485 101
-0.006625 4.571934 0.271623 101
-0.150466 4.526129 -0.419311 101
-0.295527 4.537966 -0.061913 101
-0.443596 4.567616 0.370037 101
-0.584443 4.522808 -0.325294 101
-0.734082 4.547933 0.105347 101
0.277960 4.482335 -0.511679 101
0.139120 4.573026 -0.088646 101
-0.005884 4.587168 0.343301 101
-0.149776 4.528070 -0.349402 101
-0.296614 4.566370 0.007987 101
-0.584261 4.527327 -0.255216 101
-0.733617 4.549867 0.176240 101
0.283588 4.560802 -0.308320 100
0.140591 4.596210 0.122822 101
-0.005051 4.524466 -0.736370 101
-0.150183 4.563350 -0.141094 101
-0.298358 4.605063 0.220854 101
-0.439971 4.546021 -0.476009 101
-0.587970 4.562047 -0.044959 101
0.285354 4.576904 -0.238726 101
0.141281 4.593759 0.193430 101
-0.004294 4.520706 -0.497494 100
-0.148953 4.549013 -0.070705 101
-0.298367 4.617119 0.292712 101
-0.437184 4.525074 -0.403333 101
-0.586719 4.558324 0.025669 101
0.287247 4.594949 -0.027321 101
0.141098 4.563098 0.413866 101
-0.003572 4.558784 -0.290010 101
-0.149316 4.583428 0.140111 101
-0.440053 4.562703 -0.194526 101
-0.589262 4.584107 0.238984 101
-0.726328 4.519018 -0.459267 101
0.289755 4.622722 0.043655 101
-0.002813 4.558705 -0.219768 101
-0.148725 4.588749 0.210892 101
-0.289436 4.502192 -0.605968 101
-0.439911 4.569192 -0.124210 101
-0.589995 4.595859 0.311011 101
-0.724082 4.509829 -0.387565 99
0.291343 4.635691 0.258060 101
0.141794 4.536715 -0.437849 101
-0.002053 4.555990 -0.009542 100
-0.288928 4.506001 -0.339504 101
-0.436936 4.546225 0.086897 101
-0.723491 4.510949 -0.176306 101
0.291329 4.623176 0.328800 86
0.142743 4.542878 -0.368087 89
-0.001295 4.555599 0.060431 101
-0.292044 4.566507 -0.273458 101
-0.439437 4.580247 0.158268 101
-0.581544 4.542000 -0.550075 78
-0.728145 4.544799 -0.106863 101
0.288166 4.536901 -0.447346 101
0.145357 4.553644 -0.018289 100
0.000986 4.583340 0.435675 100
-0.143524 4.545090 -0.280518 101
-0.289985 4.570139 0.078334 101
-0.577907 4.531551 -0.185077 101
-0.726289 4.547751 0.247000 101
0.290337 4.559087 -0.378796 101
0.147646 4.601336 0.052230 101
-0.142635 4.540897 -0.210276 101
-0.290377 4.588397 0.149304 101
-0.429110 4.504146 -0.567571 100
-0.580980 4.561699 -0.115598 101
-0.730507 4.579055 0.320182 101
0.292154 4.575601 -0.168121 101
0.148821 4.613979 0.265370 101
0.002487 4.539762 -0.429134 100
-0.143655 4.597756 -0.000803 101
-0.287115 4.548854 0.358715 200
-0.433207 4.555184 -0.335218 101
-0.582295 4.578105 0.096670 101
0.293812 4.589562 -0.097940 101
0.150214 4.633261 0.337984 101
0.003250 4.549804 -0.359676 101
-0.142750 4.593253 0.069785 101
-0.430998 4.539967 -0.263748 101
-0.582789 4.588085 0.167973 101
-0.720805 4.527930 -0.534551 95
0.296089 4.613088 0.114588 100
0.004018 4.561542 -0.149728 101
-0.141982 4.593170 0.281870 101
-0.283387 4.513698 -0.480132 100
-0.432441 4.563242 -0.053603 101
-0.716923 4.508373 -0.316815 101
0.297992 4.630681 0.186372 101
0.149132 4.553080 -0.510179 101
0.004774 4.559303 -0.079583 100
-0.142048 4.620215 0.354863 101
-0.284060 4.536476 -0.412060 101
-0.432838 4.575542 0.016845 101
-0.718731 4.524600 -0.247314 100
0.295566 4.581080 0.400011 100
0.149847 4.551762 -0.298500 101
0.005585 4.602111 0.131764 101
-0.137773 4.505575 -0.661778 101
-0.284187 4.550651 -0.202262 101
-0.433423 4.589872 0.229514 101
-0.572872 4.528093 -0.466833 101
-0.718374 4.527217 -0.036002 101
0.150474 4.547797 -0.228119 101
0.006364 4.611532 0.202957 101
-0.137569 4.523540 -0.489244 101
-0.284086 4.561243 -0.132444 101
-0.431154 4.573971 0.299512 101
-0.571451 4.522907 -0.395642 101
-0.720754 4.547102 0.034552 101
0.153178 4.538675 -0.157791 101
0.009325 4.567936 0.271386 101
-0.134429 4.518664 -0.418573 101
-0.279931 4.542962 -0.061967 101
-0.426534 4.557227 0.369072 101
-0.567657 4.516903 -0.324725 101
-0.716332 4.538617 0.105073 101
0.294644 4.497200 -0.513490 101
0.155353 4.580506 -0.088801 101
0.010128 4.587161 0.343301 101
-0.134087 4.532552 -0.349710 101
-0.281409 4.579355 0.008008 101
-0.568454 4.529339 -0.255216 101
-0.718353 4.556348 0.176393 101
0.298984 4.551820 -0.307781 100
0.156906 4.603684 0.123035 101
0.010761 4.532352 -0.737655 101
-0.135076 4.591821 -0.141959 101
-0.281304 4.590125 0.220089 101
-0.423361 4.539606 -0.475180 101
-0.570549 4.552165 -0.044842 101
0.301066 4.571894 -0.238518 101
0.157726 4.605220 0.193935 101
0.011486 4.520694 -0.497494 100
-0.132956 4.545507 -0.070643 101
-0.282005 4.614148 0.292459 101
-0.423232 4.546408 -0.405101 101
-0.571797 4.568282 0.025713 101
0.303548 4.597910 -0.027344 101
0.156751 4.554615 0.413144 101
0.012309 4.546793 -0.289248 101
-0.133549 4.591915 0.140355 101
-0.421905 4.540336 -0.193508 101
-0.571770 4.574245 0.238365 101
-0.713021 4.537252 -0.460865 101
0.305362 4.613700 0.043580 101
0.013088 4.554692 -0.219575 101
-0.132822 4.593235 0.211076 101
-0.273237 4.495261 -0.604903 101
-0.422482 4.554774 -0.123778 101
-0.571971 4.582049 0.309939 101
-0.706481 4.500516 -0.386551 101
0.306465 4.618705 0.257173 101
0.157491 4.532213 -0.437465 101
0.013875 4.563969 -0.009559 100
-0.271990 4.487074 -0.338004 101
-0.422539 4.563651 0.087201 101
-0.708360 4.517395 -0.176461 101
0.310113 4.661942 0.331632 86
0.159296 4.562274 -0.369701 89
0.014620 4.559576 0.060484 101
-0.275380 4.555542 -0.272742 101
-0.424182 4.589715 0.158543 101
-0.567158 4.555826 -0.551507 78
-0.714751 4.563117 -0.107234 101
0.303469 4.527923 -0.446562 101
0.161110 4.549111 -0.018273 100
0.016955 4.575344 0.434918 100
-0.127322 4.533591 -0.279779 101
-0.273074 4.555155 0.078060 101
-0.560118 4.517675 -0.184429 101
-0.707945 4.534473 0.246143 101
0.306517 4.562023 -0.379126 101
0.162996 4.580806 0.052003 101
-0.126561 4.533379 -0.209906 101
-0.273643 4.577411 0.148915 101
-0.413385 4.505616 -0.567571 100
-0.563088 4.547826 -0.115196 101
-0.713289 4.573692 0.319631 101
0.308392 4.578542 -0.168268 101
0.164925 4.613432 0.265370 101
0.018302 4.531761 -0.428381 100
-0.127383 4.590233 -0.000801 101
-0.270285 4.533906 0.357460 200
-0.415849 4.540778 -0.334049 101
-0.565330 4.572172 0.096503 101
0.310100 4.592499 -0.098026 101
0.166816 4.644669 0.338857 101
0.019182 4.561728 -0.360621 100
-0.126826 4.597721 0.069845 101
-0.416238 4.553374 -0.264441 101
-0.566280 4.586124 0.167828 101
-0.701941 4.510789 -0.532235 96
0.314350 4.643943 0.115381 100
0.019940 4.561500 -0.149728 101
-0.125838 4.589646 0.281625 101
-0.267865 4.518631 -0.480554 100
-0.414692 4.544808 -0.053369 101
-0.567873 4.605330 0.383125 2
-0.700568 4.506905 -0.316538 101
0.313884 4.625625 0.186212 101
0.164880 4.548559 -0.509733 101
0.020744 4.571257 -0.079792 100
-0.125920 4.620683 0.354863 101
-0.267517 4.525509 -0.410977 101
-0.416864 4.577025 0.016845 101
-0.702933 4.527081 -0.247314 101
0.166316 4.567167 -0.299546 101
0.021593 4.590068 0.131421 101
-0.122259 4.513940 -0.662940 101
-0.268065 4.547626 -0.202085 101
-0.417037 4.587378 0.229315 101
-0.557548 4.534015 -0.467240 101
-0.701954 4.525745 -0.035971 101
0.166202 4.543252 -0.227919 101
-0.121778 4.523993 -0.489244 101
-0.267928 4.558216 -0.132328 101
-0.415546 4.579424 0.299773 101
-0.556631 4.532785 -0.396334 101
-0.704265 4.545638 0.034522 101
0.169433 4.550099 -0.158207 101
0.025303 4.579854 0.272098 101
-0.118793 4.523087 -0.418942 101
-0.264337 4.547902 -0.062022 101
-0.411731 4.570598 0.370037 101
-0.550952 4.510932 -0.324156 101
-0.700518 4.541085 0.105073 101
0.310046 4.492181 -0.513037 101
0.171170 4.575940 -0.088723 101
0.026142 4.591086 0.343599 101
-0.118390 4.536979 -0.350017 101
-0.265443 4.580308 0.008008 101
-0.552661 4.531293 -0.255216 101
-0.703074 4.562775 0.176546 101
0.315689 4.562693 -0.308589 100
0.172516 4.591121 0.122715 101
0.026528 4.524391 -0.736370 101
-0.118018 4.552297 -0.140723 101
-0.265979 4.603045 0.220662 101
-0.407876 4.545018 -0.475595 101
-0.555147 4.558098 -0.044881 101
0.317305 4.574800 -0.238726 101
0.173353 4.592661 0.193430 101
0.027319 4.528578 -0.498369 100
-0.116981 4.541945 -0.070581 101
-0.266581 4.627061 0.293217 101
-0.406288 4.535953 -0.404040 101
-0.555843 4.570251 0.025713 101
0.319614 4.596821 -0.027344 101
0.173120 4.565982 0.414227 101
0.028322 4.566681 -0.290518 101
-0.117501 4.592353 0.140355 101
-0.406392 4.545763 -0.193678 101
-0.557708 4.592077 0.239191 101
-0.694141 4.520047 -0.458868 101
0.321774 4.616594 0.043617 101
0.028941 4.542632 -0.218997 101
-0.116757 4.593671 0.211076 101
-0.257741 4.500147 -0.605436 101
-0.405128 4.540293 -0.123345 101
-0.556904 4.591945 0.310475 101
-0.691341 4.506899 -0.386889 101
0.321516 4.601668 0.256285 101
0.173353 4.531634 -0.437465 101
0.029823 4.559893 -0.009550 100
-0.256510 4.491982 -0.338304 101
-0.405144 4.549168 0.086897 101
-0.693755 4.527749 -0.176769 101
0.324491 4.632966 0.329650 46
0.175123 4.557704 -0.369379 89
0.030592 4.559496 0.060484 101
-0.258739 4.544519 -0.272026 101
-0.408102 4.591172 0.158543 101
-0.550242 4.549899 -0.550552 78
-0.697552 4.557686 -0.107048 101
0.319927 4.534771 -0.447346 101
0.177705 4.564505 -0.018337 100
0.033079 4.583220 0.435675 100
-0.111598 4.541993 -0.280272 101
-0.257077 4.556086 0.078060 101
-0.545685 4.531518 -0.184915 101
-0.693223 4.544828 0.246572 101
0.322266 4.556942 -0.378796 101
0.179249 4.584202 0.052048 101
-0.110726 4.537790 -0.210091 101
-0.257555 4.578344 0.148915 101
-0.397897 4.510994 -0.568069 100
-0.546147 4.541836 -0.114995 101
-0.699014 4.588005 0.320457 101
0.325059 4.585403 -0.168561 101
0.180994 4.608833 0.265141 101
0.034301 4.539633 -0.429134 100
-0.111238 4.590652 -0.000801 101
-0.254337 4.534829 0.357460 200
-0.399526 4.538239 -0.333757 101
-0.548292 4.566191 0.096335 101
0.326263 4.591379 -0.098026 101
0.183164 4.644053 0.338857 101
0.035208 4.557644 -0.360306 101
-0.110449 4.590142 0.069724 101
-0.399160 4.542877 -0.263748 101
-0.548230 4.572214 0.167247 101
-0.681879 4.485736 -0.528993 101
0.330708 4.642807 0.115381 100
0.036072 4.569396 -0.149990 101
-0.110146 4.610018 0.282849 101
-0.252167 4.523518 -0.480976 100
-0.399379 4.554209 -0.053462 101
-0.548329 4.579596 0.380821 36
-0.684088 4.505400 -0.316262 101
0.330189 4.624489 0.186212 101
0.180915 4.547949 -0.509733 101
0.036666 4.547160 -0.079374 100
-0.109345 4.609137 0.353944 101
-0.251561 4.526424 -0.410977 101
-0.398632 4.554558 0.016757 101
-0.683375 4.505837 -0.246020 101
0.182111 4.558575 -0.299023 101
0.038019 4.617951 0.132222 101
-0.106331 4.514344 -0.662940 101
-0.252018 4.548543 -0.202085 101
-0.400501 4.584841 0.229116 101
-0.540603 4.528051 -0.466426 101
-0.685981 4.528193 -0.035971 101
0.182564 4.550620 -0.228319 101
0.038812 4.619365 0.203309 101
-0.106081 4.536322 -0.490533 101
-0.251831 4.559133 -0.132328 101
-0.400066 4.588816 0.300293 101
-0.540149 4.530765 -0.395988 101
-0.688209 4.548096 0.034522 101
0.185640 4.557468 -0.158485 101
0.041289 4.579738 0.272098 101
-0.102822 4.515510 -0.418205 101
-0.247588 4.532823 -0.061804 101
-0.395430 4.568035 0.369715 101
-0.537552 4.532639 -0.325579 101
-0.684067 4.539548 0.104981 101
0.325725 4.491071 -0.513037 101
0.186816 4.567323 -0.088569 101
0.042094 4.582990 0.343002 101
-0.102372 4.529390 -0.349402 101
-0.249671 4.585201 0.008015 101
-0.536371 4.529228 -0.254993 101
-0.684763 4.549391 0.175935 101
0.331614 4.561563 -0.308589 100
0.188870 4.598482 0.122928 101
0.042432 4.536114 -0.738298 101
-0.102844 4.584658 -0.141711 101
-0.249477 4.595966 0.220280 101
-0.392350 4.550378 -0.476009 101
-0.538294 4.552064 -0.044803 101
0.333852 4.581632 -0.239142 101
0.189877 4.604007 0.193935 101
0.043240 4.540382 -0.499681 100
-0.101304 4.550323 -0.070705 101
-0.250859 4.635936 0.293722 101
-0.391819 4.553222 -0.405454 101
-0.540355 4.576136 0.025736 101
0.335949 4.599667 -0.027368 101
0.188562 4.553409 0.413144 101
0.044030 4.542603 -0.288994 101
-0.101470 4.592736 0.140355 101
-0.390521 4.547153 -0.193678 101
-0.540272 4.582095 0.238571 101
-0.678949 4.526379 -0.459267 101
0.339055 4.631400 0.043768 101
0.044956 4.558484 -0.219768 101
-0.100809 4.598045 0.211259 101
-0.242244 4.504978 -0.605968 101
-0.390643 4.557615 -0.123778 101
-0.541338 4.597825 0.310743 101
-0.676786 4.517169 -0.387565 101
0.189835 4.546914 -0.439001 101
0.045740 4.559761 -0.009550 100
-0.241042 4.496832 -0.338604 101
-0.388921 4.546570 0.086821 101
-0.680904 4.549908 -0.177540 101
0.191198 4.561049 -0.369701 89
0.046712 4.579359 0.060750 101
-0.244365 4.573305 -0.273696 101
-0.392413 4.596552 0.158681 101
-0.535282 4.559681 -0.551507 78
-0.680456 4.552184 -0.106863 101
0.336930 4.549507 -0.448912 101
0.193298 4.555864 -0.018305 100
0.048992 4.575113 0.434918 100
-0.095742 4.542355 -0.280272 101
-0.241171 4.556955 0.078060 101
-0.529399 4.529426 -0.184753 101
-0.677943 4.551171 0.246786 101
0.339056 4.567715 -0.379787 101
0.195761 4.595536 0.052184 101
-0.094885 4.538149 -0.210091 101
-0.241994 4.587200 0.149174 101
-0.381813 4.508401 -0.567571 100
-0.531217 4.551659 -0.115196 101
-0.681820 4.582523 0.319906 101
0.342249 4.600186 -0.169147 101
0.196910 4.604183 0.264911 101
0.050191 4.543468 -0.429510 100
-0.095130 4.587014 -0.000801 101
-0.238925 4.543653 0.358087 200
-0.384018 4.543581 -0.334049 101
-0.532350 4.568077 0.096335 101
0.342586 4.594200 -0.098111 101
0.200400 4.667300 0.340602 101
0.051162 4.561481 -0.360621 100
-0.094590 4.598497 0.069845 101
-0.384306 4.556180 -0.264441 101
-0.534577 4.593952 0.167973 101
-0.667384 4.495949 -0.529919 101
0.346316 4.633649 0.115183 100
0.052022 4.569243 -0.149990 101
-0.094054 4.610374 0.282849 101
-0.235753 4.512454 -0.479709 100
-0.382137 4.539633 -0.053275 101
-0.535561 4.609200 0.383125 46
-0.671869 4.531444 -0.317923 101
0.346628 4.627294 0.186372 35
0.197649 4.567147 -0.511959 101
0.052955 4.582996 -0.080002 100
-0.093417 4.617465 0.354556 101
-0.237002 4.551145 -0.413144 101
-0.384406 4.575851 0.016831 101
-0.669983 4.524000 -0.246883 101
0.198195 4.561899 -0.299285 101
0.053763 4.585805 0.131306 101
-0.090573 4.514688 -0.662940 101
-0.236553 4.557377 -0.202439 101
-0.385162 4.594173 0.229514 101
-0.524794 4.529911 -0.466426 101
-0.667829 4.514733 -0.035845 101
0.198274 4.545964 -0.228119 101
0.054842 4.611210 0.202957 101
-0.089929 4.520761 -0.488814 101
-0.235502 4.551999 -0.132096 101
-0.383380 4.582229 0.299773 101
-0.523873 4.528664 -0.395642 101
-0.671160 4.542557 0.034462 101
0.201901 4.564780 -0.158763 101
0.057375 4.587552 0.272572 101
-0.087367 4.531770 -0.419680 101
-0.232172 4.541648 -0.061913 101
-0.379482 4.569387 0.369715 101
-0.519447 4.514669 -0.324156 101
-0.669963 4.553777 0.105256 101
0.341099 4.485944 -0.512584 101
0.203289 4.578629 -0.088801 101
0.058142 4.586803 0.343301 101
-0.086637 4.533707 -0.349710 101
-0.233257 4.578054 0.008001 101
-0.520557 4.531073 -0.254993 101
-0.668297 4.547800 0.175782 101
0.347838 4.564357 -0.308858 100
0.204386 4.585811 0.122608 101
0.058164 4.528043 -0.737013 101
-0.086462 4.565002 -0.141094 101
-0.234243 4.612770 0.221045 101
-0.375152 4.535860 -0.474351 101
-0.522401 4.553916 -0.044803 101
0.349843 4.580439 -0.239142 101
0.205411 4.591339 0.193430 101
0.058985 4.532252 -0.498806 100
-0.085495 4.554648 -0.070767 101
-0.234675 4.636783 0.293722 101
-0.375267 4.546620 -0.404747 101
-0.524378 4.577994 0.025736 101
0.351697 4.594478 -0.027344 101
0.204634 4.556703 0.413505 101
0.059992 4.550406 -0.289502 101
-0.085215 4.581069 0.139989 101
-0.373990 4.540523 -0.193338 101
-0.523367 4.576015 0.238158 101
-0.661991 4.520845 -0.458469 101
0.354301 4.618224 0.043655 101
0.060867 4.558300 -0.219768 101
-0.084611 4.590379 0.210892 101
-0.226318 4.501836 -0.605436 101
-0.374076 4.550981 -0.123561 101
-0.525738 4.603652 0.311011 101
-0.663321 4.535278 -0.388918 101
0.205706 4.546224 -0.439001 101
0.061710 4.563573 -0.009559 100
-0.082849 4.536459 0.455274 0
-0.224945 4.489679 -0.338004 101
-0.374356 4.563843 0.087125 101
-0.662706 4.536437 -0.176923 101
0.207299 4.564336 -0.370024 89
0.062368 4.555172 0.060431 101
-0.227803 4.562167 -0.272980 101
-0.375387 4.585941 0.158268 101
-0.517566 4.545738 -0.549598 80
-0.664562 4.554531 -0.106863 101
0.351885 4.536397 -0.447737 101
0.209200 4.555162 -0.018305 100
0.065018 4.578896 0.435296 100
-0.079886 4.542661 -0.280272 101
-0.225263 4.557769 0.078060 101
-0.512235 4.519332 -0.184268 101
-0.661477 4.549557 0.246572 101
0.354689 4.562529 -0.379457 101
0.211433 4.586834 0.052093 101
-0.079044 4.538452 -0.210091 101
-0.225783 4.584023 0.149044 101
-0.366074 4.509706 -0.567571 100
-0.514876 4.549511 -0.115096 101
-0.662953 4.565130 0.318528 101
0.358305 4.598963 -0.169147 101
0.213165 4.607457 0.265141 101
0.066224 4.555210 -0.430640 100
-0.079394 4.603315 -0.000804 101
-0.222477 4.532511 0.357146 200
-0.368800 4.552846 -0.334634 101
-0.516850 4.573881 0.096419 101
0.357998 4.585002 -0.097940 101
0.216136 4.654616 0.339729 101
0.067025 4.557288 -0.360306 101
-0.078401 4.590801 0.069724 101
-0.368078 4.553514 -0.264210 101
-0.516297 4.575930 0.167247 101
-0.652825 4.506115 -0.530845 101
0.361240 4.616466 0.114786 42
0.067793 4.557041 -0.149597 101
-0.077555 4.586723 0.281380 101
-0.220387 4.521194 -0.480554 100
-0.366932 4.548913 -0.053369 101
-0.518130 4.599157 0.382138 51
-0.656047 4.533761 -0.317923 101
0.213219 4.558488 -0.511069 101
0.068711 4.566787 -0.079723 100
-0.077098 4.605800 0.353638 101
-0.219954 4.528070 -0.410977 101
-0.368110 4.573178 0.016816 101
-0.655330 4.534217 -0.247314 101
0.214305 4.565166 -0.299546 101
0.070135 4.609577 0.131993 101
-0.074682 4.507062 -0.661778 101
-0.220450 4.554183 -0.202262 101
-0.368483 4.587525 0.229116 101
-0.508534 4.527761 -0.466019 101
-0.654352 4.532872 -0.035971 101
0.213953 4.541253 -0.227919 101
0.070937 4.610991 0.202957 101
-0.074344 4.532976 -0.490103 101
-0.220574 4.572761 -0.132675 101
-0.368020 4.591496 0.300293 101
-0.506729 4.518585 -0.394605 101
-0.655299 4.544872 0.034462 101
0.217846 4.564047 -0.158763 101
0.073337 4.583331 0.272335 101
-0.071410 4.524083 -0.418942 101
-0.215925 4.534441 -0.061804 101
-0.363518 4.570685 0.369715 101
-0.505441 4.532317 -0.325294 101
-0.652346 4.544215 0.104981 101
0.358654 4.508496 -0.515301 101
0.219278 4.577891 -0.088801 101
0.074225 4.590560 0.343599 101
-0.070803 4.533982 -0.349710 101
-0.217457 4.582837 0.008008 101
-0.503404 4.520956 -0.254323 101
-0.652411 4.550106 0.175782 101
0.363454 4.559137 -0.308589 100
0.220203 4.581075 0.122501 101
0.073908 4.523865 -0.736370 101
-0.070215 4.545288 -0.140476 101
-0.217005 4.589614 0.219897 101
-0.359000 4.533176 -0.473936 101
-0.504731 4.539810 -0.044646 101
0.365510 4.575208 -0.238934 101
0.221627 4.594585 0.193598 101
0.074672 4.524068 -0.497931 100
-0.069536 4.550920 -0.070705 101
-0.217551 4.617636 0.292459 101
-0.359396 4.547902 -0.404747 101
-0.507955 4.575821 0.025713 101
0.368684 4.605184 -0.027415 101
0.220918 4.563919 0.414227 101
0.076202 4.570125 -0.290772 101
-0.069472 4.597330 0.140477 101
-0.359088 4.553753 -0.193847 101
-0.506957 4.573843 0.237951 101
-0.646213 4.523127 -0.458469 101
0.369449 4.604999 0.043542 101
0.076767 4.558059 -0.219768 101
-0.068598 4.590646 0.210892 101
-0.210057 4.490718 -0.603838 101
-0.356945 4.536313 -0.123128 101
-0.506604 4.577690 0.309136 101
-0.645245 4.521781 -0.387565 101
0.222139 4.557409 -0.440153 101
0.077964 4.583327 -0.009601 100
-0.068264 4.620292 0.463660 0
-0.209658 4.498405 -0.338604 101
-0.358126 4.561134 0.087049 101
-0.646883 4.538721 -0.176923 101
0.222820 4.555622 -0.369379 89
0.078591 4.574923 0.060697 101
-0.211526 4.554956 -0.272503 101
-0.359397 4.587222 0.158268 101
-0.502151 4.551462 -0.550075 78
-0.646426 4.540984 -0.106491 101
0.368971 4.551014 -0.449304 101
0.225657 4.566391 -0.018353 100
0.080966 4.578642 0.435296 100
-0.064063 4.542912 -0.280272 101
-0.209754 4.566516 0.078197 101
-0.498236 4.536981 -0.184915 101
-0.646749 4.559742 0.247000 101
0.370574 4.561266 -0.379457 101
0.227799 4.594059 0.052184 101
-0.063296 4.542696 -0.210276 101
-0.209820 4.584782 0.149044 101
-0.350368 4.510954 -0.567571 100
-0.499903 4.559227 -0.115297 101
-0.648732 4.579264 0.319355 101
0.374312 4.597688 -0.169147 101
0.229202 4.606687 0.265141 101
0.081937 4.546989 -0.429887 100
-0.063259 4.595564 -0.000802 101
-0.206879 4.537241 0.357460 200
-0.352949 4.554102 -0.334634 101
-0.500054 4.567701 0.096251 101
0.373952 4.583729 -0.097940 101
0.232532 4.657820 0.340020 101
0.082957 4.561014 -0.360621 101
-0.062587 4.603044 0.069906 101
-0.351922 4.550786 -0.263979 101
-0.501672 4.589620 0.167682 101
-0.637696 4.512294 -0.531309 101
0.083867 4.568769 -0.149990 101
-0.061758 4.598941 0.282114 101
-0.205016 4.529881 -0.481399 100
-0.352027 4.562126 -0.053509 101
-0.502126 4.600932 0.382138 71
-0.639712 4.532065 -0.317646 101
0.229671 4.569629 -0.512404 101
0.084668 4.570519 -0.079792 100
-0.061078 4.606040 0.353638 101
-0.204743 4.540747 -0.412060 101
-0.352816 4.582407 0.016845 101
-0.639555 4.536469 -0.247314 101
0.230579 4.572367 -0.300070 101
0.085789 4.589317 0.131421 101
-0.059218 4.523123 -0.664102 101
-0.204614 4.554923 -0.202262 101
-0.352530 4.588779 0.229116 101
-0.493218 4.533458 -0.466426 101
-0.636914 4.523238 -0.035877 101
0.230746 4.560431 -0.228920 101
0.087040 4.614711 0.203133 100
-0.058536 4.529231 -0.489673 101
-0.204320 4.565512 -0.132444 101
-0.351753 4.588768 0.300033 101
-0.491450 4.524281 -0.394950 101
-0.640054 4.551083 0.034492 101
0.233980 4.567251 -0.158902 101
0.089491 4.591031 0.272809 101
-0.055764 4.536252 -0.420049 101
-0.200977 4.555146 -0.062076 101
-0.347259 4.567951 0.369394 101
-0.489189 4.530087 -0.325010 101
-0.637589 4.554385 0.105164 101
0.373402 4.495335 -0.513943 101
0.235667 4.585086 -0.088956 101
0.090249 4.590273 0.343599 101
-0.055169 4.550153 -0.350940 101
-0.201107 4.575576 0.007994 101
-0.489333 4.538568 -0.255216 101
-0.635970 4.548397 0.175629 101
0.380028 4.565795 -0.309128 100
0.236605 4.588265 0.122715 101
0.089855 4.531474 -0.737655 101
-0.054587 4.565494 -0.141094 101
-0.200983 4.590343 0.219897 101
-0.344375 4.550270 -0.475595 101
-0.489737 4.549498 -0.044724 101
0.382142 4.581866 -0.239350 101
0.238077 4.601766 0.193935 101
0.090941 4.547631 -0.500556 100
-0.053744 4.559133 -0.070830 101
-0.200735 4.602415 0.291449 101
-0.343219 4.545156 -0.404394 101
-0.491552 4.573589 0.025691 101
0.236641 4.559142 0.413866 101
0.091832 4.553867 -0.289756 101
-0.053331 4.589549 0.140233 101
-0.341689 4.535053 -0.192999 101
-0.491840 4.583528 0.238365 101
-0.629322 4.517471 -0.457670 101
0.092840 4.565753 -0.220153 100
-0.052573 4.590858 0.210892 101
-0.194381 4.491424 -0.603838 101
-0.341707 4.545506 -0.123345 101
-0.491472 4.587367 0.309671 101
-0.628358 4.516111 -0.386889 101
0.237631 4.548654 -0.439385 101
0.093881 4.579028 -0.009592 100
-0.051866 4.596623 0.461264 1
-0.193955 4.499109 -0.338604 101
-0.341903 4.558368 0.086973 101
-0.632686 4.552828 -0.177386 101
0.238721 4.554816 -0.369379 89
0.094395 4.566623 0.060590 101
-0.195968 4.563645 -0.272980 101
-0.343383 4.588448 0.158268 101
-0.485417 4.545289 -0.549121 80
-0.631670 4.551135 -0.106677 101
0.385190 4.553665 -0.449696 101
0.241596 4.565576 -0.018353 100
0.097623 4.610181 0.438324 100
-0.048332 4.555084 -0.281011 101
-0.193982 4.571217 0.078265 101
-0.483241 4.546640 -0.185239 101
-0.631375 4.565929 0.247214 101
0.386831 4.563917 -0.379787 101
0.244258 4.601225 0.052275 101
-0.047438 4.542889 -0.210276 101
-0.194152 4.593475 0.149304 101
-0.334326 4.508192 -0.567073 100
-0.483985 4.560944 -0.115297 101
-0.631651 4.573594 0.318804 101
0.391035 4.604320 -0.169441 101
0.245706 4.613834 0.265600 101
0.098151 4.562601 -0.431393 100
-0.047258 4.599757 -0.000803 101
-0.190705 4.529968 0.356832 200
-0.336167 4.543371 -0.333757 101
-0.484950 4.577373 0.096419 101
0.390628 4.590365 -0.098111 101
0.248364 4.649013 0.339438 101
0.098878 4.560697 -0.360621 101
-0.046439 4.595235 0.069785 101
-0.336034 4.551986 -0.263979 101
-0.484387 4.579417 0.167247 101
-0.621399 4.510557 -0.530845 101
0.099553 4.556458 -0.149597 101
-0.045625 4.591144 0.281625 101
-0.187875 4.498776 -0.478020 100
-0.335218 4.551360 -0.053369 101
-0.485644 4.598692 0.381809 87
-0.624432 4.538224 -0.317923 101
0.245193 4.560861 -0.511514 101
0.100446 4.562199 -0.079653 100
-0.045078 4.614202 0.354250 101
-0.188064 4.521533 -0.410255 101
-0.334766 4.555686 0.016743 101
-0.619366 4.507018 -0.245589 101
0.246753 4.575520 -0.300331 101
0.102163 4.604980 0.131879 100
-0.043429 4.523303 -0.664102 101
-0.189044 4.563594 -0.202617 101
-0.337387 4.601934 0.229713 101
-0.477391 4.535151 -0.466426 101
-0.621121 4.525433 -0.035877 101
0.247096 4.567576 -0.229321 101
0.103237 4.618374 0.203309 101
-0.042875 4.545314 -0.491393 101
-0.188877 4.578182 -0.132791 101
-0.335733 4.589968 0.300033 101
-0.477320 4.541821 -0.396334 101
-0.623621 4.549327 0.034462 101
0.249485 4.558423 -0.158624 101
0.105332 4.582707 0.272335 101
-0.039719 4.512523 -0.417836 101
-0.184426 4.539834 -0.061858 101
-0.331023 4.565159 0.369072 101
-0.472544 4.523830 -0.324441 101
-0.620065 4.544696 0.104890 101
0.391148 4.517761 -0.516659 101
0.251671 4.584235 -0.088956 101
0.106271 4.589931 0.343599 101
-0.039183 4.538354 -0.350017 101
-0.185458 4.584243 0.008008 101
-0.472245 4.528332 -0.254546 101
-0.621169 4.558510 0.175935 101
0.395619 4.560464 -0.308858 100
0.252619 4.587411 0.122715 101
0.105488 4.523239 -0.736370 101
-0.038515 4.549665 -0.140600 101
-0.185441 4.602993 0.220471 101
-0.327057 4.531604 -0.473521 101
-0.474682 4.559136 -0.044803 101
0.398479 4.584484 -0.239558 101
0.254359 4.604897 0.194103 101
0.106534 4.535361 -0.499244 100
-0.037863 4.563293 -0.070892 101
-0.186109 4.638987 0.293722 101
-0.327637 4.550301 -0.404747 101
-0.475584 4.575277 0.025691 101
0.251893 4.546355 0.412783 101
0.107633 4.549528 -0.289502 101
-0.037342 4.593705 0.140355 101
-0.327002 4.552163 -0.193678 101
-0.476662 4.593164 0.238778 101
-0.614085 4.523584 -0.458069 101
0.109062 4.577384 -0.220731 100
-0.036643 4.603001 0.211443 101
-0.179016 4.499998 -0.604903 101
-0.326124 4.550659 -0.123453 101
-0.475456 4.589055 0.309671 101
-0.613661 4.526176 -0.387565 101
0.253064 4.539845 -0.438617 101
0.109768 4.574673 -0.009584 100
-0.036100 4.632596 0.464859 19
-0.178565 4.507730 -0.339204 101
-0.325989 4.559534 0.086973 101
-0.616254 4.551048 -0.177232 101
0.255064 4.561916 -0.370024 89
0.110625 4.578261 0.060750 101
-0.179879 4.560311 -0.272742 101
-0.328217 4.601581 0.158681 101
-0.469548 4.546956 -0.549121 80
-0.617924 4.569163 -0.107048 101
0.399336 4.532466 -0.447737 101
0.257080 4.556717 -0.018321 100
0.113322 4.593888 0.436810 100
-0.032403 4.551233 -0.280764 101
-0.177713 4.563873 0.078128 101
-0.466550 4.540348 -0.184915 101
-0.613833 4.556230 0.246572 101
0.402058 4.554597 -0.379126 101
0.260092 4.596351 0.052230 101
-0.031525 4.535035 -0.209906 101
-0.177807 4.586135 0.149044 101
-0.318588 4.509331 -0.567073 100
-0.466837 4.550672 -0.114995 101
-0.617279 4.587636 0.319631 101
0.403935 4.567091 -0.168121 26
0.260905 4.597001 0.264682 101
0.113679 4.546306 -0.429887 100
-0.031093 4.583894 -0.000800 101
-0.175045 4.534590 0.357146 200
-0.320305 4.544517 -0.333757 101
-0.468154 4.571081 0.096251 101
0.265044 4.656084 0.340020 101
0.114897 4.564310 -0.360936 101
-0.030424 4.599369 0.069845 101
-0.320983 4.565082 -0.264672 101
-0.469212 4.589033 0.167537 101
-0.612520 4.563890 -0.536867 101
0.115660 4.564076 -0.149859 101
-0.029676 4.603253 0.282359 101
-0.172779 4.515303 -0.479709 100
-0.319609 4.556492 -0.053416 101
-0.469184 4.596394 0.381480 100
-0.606467 4.524556 -0.316815 101
0.260430 4.548071 -0.510179 101
0.116268 4.557823 -0.079583 100
-0.028971 4.614331 0.354250 101
-0.172431 4.526143 -0.410616 101
-0.319700 4.568798 0.016787 101
-0.604160 4.513111 -0.245805 101
0.262266 4.566660 -0.299808 101
0.118031 4.596601 0.131650 101
-0.027542 4.507596 -0.661778 101
-0.172961 4.560233 -0.202439 101
-0.320486 4.591128 0.229116 101
-0.460752 4.528873 -0.465612 101
-0.606381 4.535503 -0.035939 101
0.262349 4.554721 -0.228720 101
0.119255 4.613991 0.203133 101
-0.026914 4.529529 -0.489673 101
-0.172442 4.566827 -0.132444 101
-0.319709 4.591112 0.300033 101
-0.459047 4.519672 -0.394259 101
-0.608796 4.559405 0.034522 101
0.266569 4.577478 -0.159319 101
0.121341 4.582311 0.272335 101
-0.024103 4.540514 -0.420417 101
-0.168417 4.536454 -0.061804 101
-0.314799 4.562310 0.368751 101
-0.457139 4.529423 -0.324725 101
-0.605239 4.554762 0.105073 101
0.405140 4.496576 -0.514395 101
0.268145 4.591313 -0.089111 101
0.122406 4.593519 0.343898 100
-0.023292 4.530487 -0.349402 101
-0.169004 4.572871 0.007987 101
-0.456427 4.529953 -0.254546 101
-0.605246 4.560651 0.175935 101
0.411897 4.563030 -0.309128 100
0.269101 4.594485 0.122928 101
0.121385 4.526789 -0.737013 101
-0.022571 4.537778 -0.140229 101
-0.169369 4.603613 0.220471 101
-0.311507 4.536687 -0.473936 101
-0.458361 4.556786 -0.044763 101
0.413758 4.575108 -0.239142 101
0.270430 4.603981 0.194103 101
0.122149 4.527013 -0.498369 100
-0.022012 4.579394 -0.071140 101
-0.169332 4.623651 0.292712 101
-0.310392 4.531541 -0.402980 101
-0.459612 4.576909 0.025691 101
0.267989 4.549425 0.413144 101
0.124157 4.573067 -0.291026 101
-0.021313 4.593807 0.140355 101
-0.309754 4.533340 -0.192830 101
-0.459039 4.578900 0.237951 101
-0.597254 4.517808 -0.457271 101
0.124702 4.564993 -0.220153 100
-0.020497 4.583121 0.210525 101
-0.163031 4.492671 -0.603838 101
-0.309433 4.539801 -0.123128 101
-0.458650 4.582743 0.309136 101
-0.594739 4.504581 -0.385536 101
0.269601 4.550859 -0.439769 101
0.126050 4.586258 -0.009609 100
-0.019773 4.592893 0.460865 17
-0.162988 4.512311 -0.339504 101
-0.309816 4.556653 0.086897 101
-0.600379 4.553169 -0.177232 101
0.270494 4.553040 -0.369379 89
0.126695 4.581845 0.060803 101
-0.164267 4.568892 -0.273219 101
-0.311632 4.594720 0.158406 101
-0.454876 4.560421 -0.550552 78
-0.600425 4.559396 -0.106770 101
0.416574 4.546904 -0.449304 101
0.273190 4.559787 -0.018337 100
0.129099 4.585505 0.436053 100
-0.016550 4.551318 -0.280764 101
-0.161531 4.556471 0.077991 101
-0.449153 4.526037 -0.184268 101
-0.597440 4.554379 0.246357 101
0.418645 4.561109 -0.379787 101
0.276096 4.595417 0.052230 101
-0.015788 4.551100 -0.210645 101
-0.161836 4.586726 0.149044 101
-0.302618 4.506453 -0.566576 100
-0.451776 4.560228 -0.115196 101
-0.600782 4.585801 0.319355 101
0.278107 4.615995 0.265829 101
0.130185 4.569767 -0.432145 100
-0.015188 4.599975 -0.000803 101
-0.159678 4.547128 0.358087 200
-0.305016 4.553566 -0.334341 101
-0.452632 4.576663 0.096335 101
0.281006 4.651151 0.339729 101
0.130781 4.563882 -0.360936 101
-0.014430 4.603446 0.069906 101
-0.305626 4.574141 -0.265134 101
-0.454417 4.602572 0.167973 101
-0.589941 4.514779 -0.530845 101
0.131423 4.559650 -0.149728 101
-0.013672 4.607321 0.282604 101
-0.157068 4.515877 -0.479709 100
-0.302158 4.533631 -0.053135 101
-0.451234 4.578162 0.379834 101
-0.589688 4.518724 -0.316262 101
0.277694 4.570945 -0.512850 101
0.132352 4.565386 -0.079723 100
-0.012921 4.614404 0.354250 101
-0.156549 4.522734 -0.410255 101
-0.303807 4.569882 0.016787 101
-0.590523 4.531028 -0.246667 101
0.278629 4.573689 -0.300331 101
0.134130 4.600159 0.131764 101
-0.011889 4.515580 -0.662940 101
-0.157516 4.572788 -0.202971 101
-0.305049 4.600187 0.229514 101
-0.444612 4.526487 -0.465205 101
-0.590606 4.537584 -0.035939 101
0.278911 4.565744 -0.229321 101
0.135527 4.621538 0.203484 101
-0.011179 4.533572 -0.490103 101
-0.156840 4.575390 -0.132675 101
-0.304274 4.600162 0.300553 101
-0.444111 4.529172 -0.394950 101
-0.594490 4.573393 0.034612 101
0.281560 4.560559 -0.158763 101
0.137335 4.581860 0.272335 101
-0.008225 4.524639 -0.418942 101
-0.152581 4.537014 -0.061804 101
-0.298872 4.563381 0.368751 101
-0.438618 4.503194 -0.322733 101
-0.587798 4.544950 0.104799 101
0.421945 4.507005 -0.515754 101
0.284664 4.598332 -0.089266 101
0.138560 4.597051 0.344196 101
-0.007498 4.542505 -0.350325 101
-0.153576 4.589424 0.008015 101
-0.439453 4.519594 -0.253876 101
-0.590858 4.574629 0.176393 101
0.284890 4.589527 0.122822 101
0.137306 4.530284 -0.737655 101
-0.006743 4.545825 -0.140476 101
-0.153165 4.600183 0.220280 101
-0.295928 4.541717 -0.474351 101
-0.442839 4.562340 -0.044803 101
0.286747 4.606998 0.194271 101
0.138435 4.542455 -0.500119 100
