# This PCD file was generated using the MATLAB® pcwrite function
# from Computer Vision Toolbox®.
# .PCD v.7 - Point Cloud Data file format
VERSION .7
FIELDS x y z intensity
SIZE 4 4 4 1
TYPE F F F U
COUNT 1 1 1 1
WIDTH 1464
HEIGHT 1
VIEWPOINT 0 0 0 1 0 0 0
POINTS 1464
DATA ascii
-2.139667 5.525716 -0.468429 85
-1.761461 5.574528 0.144920 11
-1.915799 5.457928 -1.056001 101
-2.154350 5.566433 -0.195919 80
-2.559443 5.538965 -0.647777 42
-1.930483 5.502739 -0.653082 101
-2.136925 5.524187 -0.103388 45
-2.560705 5.544160 -0.553627 101
-1.938778 5.529379 -0.384047 101
-2.327991 5.495253 -0.876173 100
-1.938243 5.530851 -0.293811 101
-2.341483 5.529705 -0.649172 88
-1.704898 5.416655 -1.180329 101
-1.938750 5.543193 -0.204045 101
-2.333942 5.521328 -0.555025 101
-1.722058 5.474409 -0.653862 101
-1.947855 5.572252 -0.114372 101
-2.343811 5.547292 -0.464434 101
-1.729534 5.501428 -0.389102 101
-2.110973 5.478097 -0.955482 67
-2.361151 5.590972 -0.187548 101
-1.736177 5.525827 -0.301527 101
-2.124981 5.517231 -0.650636 67
-1.743553 5.552588 -0.034536 101
-2.133993 5.543427 -0.377876 85
-1.748555 5.571815 0.055040 101
-2.132018 5.541093 -0.286218 93
-1.912243 5.485272 -0.560370 99
-2.548045 5.545386 -0.458870 101
-1.917856 5.504371 -0.472055 66
-2.566413 5.587852 -0.367474 81
-1.714137 5.478365 -0.564862 101
-1.929201 5.545991 -0.023572 100
-2.331656 5.542056 -0.370905 101
-1.717976 5.493899 -0.477296 101
-2.338847 5.561781 -0.279258 101
-1.725359 5.520788 -0.212094 101
-2.121328 5.532859 -0.560133 100
-1.728769 5.534989 -0.123490 101
-2.118939 5.529428 -0.468114 88
-1.740800 5.576825 0.144821 100
-1.890285 5.445995 -1.052410 101
-2.129187 5.558986 -0.195394 82
-2.531813 5.529782 -0.645665 38
-1.907354 5.498178 -0.651746 101
-2.113339 5.520407 -0.103179 46
-2.544652 5.560309 -0.554350 101
-1.915542 5.524799 -0.383262 101
-2.299609 5.481449 -0.872687 100
-2.549971 5.574424 -0.271928 25
-1.912384 5.518709 -0.292809 101
-2.316015 5.523175 -0.647452 94
-1.683655 5.415093 -1.178701 101
-1.910243 5.523480 -0.203072 101
-2.317731 5.536789 -0.555762 101
-1.697042 5.461411 -0.651598 101
-1.923167 5.563898 -0.114062 101
-2.316736 5.537045 -0.462896 101
-1.706769 5.495997 -0.388295 101
-2.093245 5.489121 -0.956125 71
-2.332365 5.577049 -0.186807 101
-1.714510 5.524224 -0.301111 101
-2.105709 5.524615 -0.650636 65
-1.717050 5.535718 -0.034394 101
-2.104682 5.524730 -0.376099 81
-1.726726 5.570244 0.054964 101
-2.109819 5.541034 -0.285833 84
-2.514176 5.519926 -0.814703 26
-1.896977 5.503206 -0.561522 89
-2.523715 5.543356 -0.457970 101
-1.897332 5.507262 -0.471732 71
-2.546892 5.596776 -0.367474 79
-1.691477 5.472906 -0.563687 101
-1.908529 5.548909 -0.023556 101
-2.307690 5.539105 -0.370166 101
-1.696436 5.492245 -0.476634 101
-2.313274 5.555157 -0.278518 101
-1.706077 5.526777 -0.212094 101
-2.097764 5.529060 -0.559003 101
-1.705901 5.529526 -0.123235 101
-2.098211 5.533062 -0.467799 85
-1.721323 5.582868 0.144821 101
-1.868708 5.445116 -1.050973 101
-2.106936 5.558907 -0.195132 72
-2.500993 5.513230 -0.642709 37
-1.884282 5.493522 -0.650411 101
-2.102558 5.550190 -0.103597 58
-2.520292 5.558274 -0.553266 101
-1.897540 5.535228 -0.383524 101
-2.278943 5.485788 -0.872106 100
-2.538745 5.601490 -0.272814 47
-1.893109 5.525351 -0.292809 101
-2.293671 5.523880 -0.646592 100
-1.670491 5.439656 -1.182771 101
-1.894831 5.541462 -0.203489 101
-2.290764 5.526449 -0.553918 101
-1.679134 5.471100 -0.652050 101
-1.898560 5.555440 -0.113752 101
-2.297394 5.545098 -0.462896 101
-1.682893 5.486660 -0.387217 101
-2.068496 5.481620 -0.953554 71
-2.303705 5.562994 -0.186066 101
-1.692875 5.522537 -0.300695 101
-2.083605 5.524491 -0.649761 63
-1.700060 5.549327 -0.034441 101
-2.086792 5.535778 -0.376352 79
-1.703759 5.564764 0.054851 101
-2.089056 5.544626 -0.285640 83
-2.498153 5.535895 -0.815768 73
-1.873902 5.498488 -0.560370 82
-2.492869 5.526680 -0.455871 101
-1.870384 5.491207 -0.469795 71
-2.522416 5.594712 -0.366758 86
-1.671201 5.474969 -0.563295 101
-1.883997 5.540389 -0.023491 101
-2.283774 5.536055 -0.369427 101
-1.674927 5.490507 -0.475973 101
-1.900972 5.593414 0.067023 62
-2.290823 5.555809 -0.278148 100
-1.687941 5.536522 -0.212240 101
-2.077051 5.532620 -0.558627 100
-1.684258 5.527796 -0.123064 101
-2.074681 5.529152 -0.466853 85
-2.725178 5.579680 -0.359132 3
-1.689011 5.546763 0.143731 101
-1.845897 5.440427 -1.048818 101
-2.083307 5.554998 -0.194738 67
-2.484994 5.529182 -0.643554 46
-1.859988 5.485008 -0.648630 101
-2.085979 5.564986 -0.103737 71
-2.497610 5.559770 -0.552544 101
-1.870520 5.519136 -0.381954 101
-2.255263 5.482729 -0.870363 100
-2.507718 5.584799 -0.271574 68
-1.867402 5.513007 -0.291808 101
-2.268326 5.517140 -0.644873 97
-1.866485 5.521544 -0.202517 101
-2.262356 5.512316 -0.551706 101
-1.657702 5.469327 -0.651145 101
-1.874018 5.546884 -0.113442 101
-2.274979 5.545711 -0.462281 101
-1.660253 5.481044 -0.386410 101
-2.049342 5.488809 -0.953554 67
-2.282749 5.567305 -0.185942 101
-1.668962 5.513118 -0.299863 101
-2.061532 5.524279 -0.648886 71
-1.678377 5.547565 -0.034394 101
-2.063287 5.531802 -0.375591 94
-1.680878 5.559183 0.054738 101
-2.062737 5.533156 -0.284677 93
-2.472369 5.530093 -0.813638 66
-1.853464 5.501210 -0.559986 80
-2.473600 5.535331 -0.455871 101
-1.852525 5.501465 -0.470118 77
-2.498036 5.592524 -0.366042 92
-1.653310 5.484556 -0.563687 101
-1.864729 5.546904 -0.023491 101
-2.259989 5.532871 -0.368688 101
-1.656995 5.500109 -0.476304 101
-1.876435 5.584817 0.066841 101
-2.263958 5.545237 -0.277223 101
-1.664100 5.527038 -0.211654 101
-2.055058 5.532332 -0.557874 100
-2.704013 5.583026 -0.454459 55
-1.662764 5.525948 -0.122894 101
-2.051321 5.525102 -0.465907 89
-2.716242 5.610668 -0.360518 71
-1.662858 5.529611 0.143136 101
-1.829523 5.454257 -1.050254 101
-2.064032 5.562189 -0.194738 67
-2.465806 5.537766 -0.643554 58
-1.839704 5.487652 -0.648185 101
-2.055554 5.542183 -0.103179 76
-2.468608 5.546555 -0.550377 101
-1.848856 5.518013 -0.381431 101
-2.236260 5.490508 -0.870363 100
-2.486736 5.589800 -0.271396 83
-1.843233 5.504285 -0.291007 101
-2.247715 5.521276 -0.644443 97
-1.843399 5.516651 -0.202100 101
-2.241601 5.516489 -0.551337 101
-1.635182 5.463658 -0.649786 101
-1.853377 5.549599 -0.113365 101
-2.252605 5.546228 -0.461666 101
-1.642254 5.490630 -0.386679 101
-2.023330 5.477412 -0.950342 71
-2.249767 5.541899 -0.184830 101
-1.647419 5.511256 -0.299447 101
-2.036728 5.516521 -0.647136 71
-1.654423 5.538060 -0.034299 101
-2.039818 5.527736 -0.374829 87
-1.660318 5.561184 0.054701 101
-2.040646 5.532825 -0.284292 100
-2.446629 5.524190 -0.811508 72
-1.830476 5.496314 -0.558833 79
-2.050386 5.562099 -0.012416 26
-2.447804 5.529342 -0.454671 101
-1.832051 5.504115 -0.469795 74
-2.478499 5.601210 -0.366042 83
-1.634155 5.490294 -0.563687 101
-1.842832 5.545787 -0.023459 101
-2.245152 5.551830 -0.369427 101
-1.635513 5.498218 -0.475643 101
-1.855668 5.587538 0.066796 101
-2.241593 5.545697 -0.276854 101
-1.640241 5.517487 -0.211068 101
-2.030239 5.524520 -0.556368 99
-2.684508 5.592431 -0.454459 76
-1.643464 5.531718 -0.122894 101
-2.026523 5.517257 -0.464647 85
-2.679366 5.584112 -0.358208 100
-1.638993 5.520048 0.142739 101
-1.804282 5.441934 -1.046663 101
-2.040470 5.558101 -0.194345 76
-2.436829 5.524504 -0.641020 64
-1.823038 5.501587 -0.649075 101
-2.041706 5.564343 -0.103458 77
-2.447625 5.551493 -0.550016 101
-1.827074 5.516855 -0.380908 101
-2.217081 5.498280 -0.870363 100
-2.457539 5.576506 -0.270333 87
-1.825264 5.514478 -0.291207 101
-2.223969 5.518023 -0.643153 100
-1.822878 5.519256 -0.201961 101
-2.219358 5.516890 -0.550599 101
-1.614974 5.465521 -0.649334 101
-1.835248 5.559832 -0.113442 101
-2.230256 5.546658 -0.461051 101
-1.620818 5.488674 -0.386140 101
-2.002843 5.480733 -0.949699 69
-2.233390 5.557137 -0.185077 101
-1.625910 5.509310 -0.299031 101
-2.014731 5.516128 -0.646260 58
-2.664923 5.580006 -0.548618 52
-1.638476 5.555311 -0.034370 101
-2.019142 5.531072 -0.374575 83
-1.638634 5.559272 0.054625 101
-2.015842 5.524902 -0.283522 95
-2.425738 5.529067 -0.810975 81
-1.813769 5.510233 -0.559602 84
-2.030958 5.569222 -0.012416 60
-2.422081 5.523241 -0.453471 101
-1.810335 5.502902 -0.469149 76
-2.454124 5.598856 -0.365326 76
-1.609369 5.476869 -0.561728 101
-1.818470 5.536985 -0.023395 101
-2.216856 5.537395 -0.367949 101
-1.612941 5.492419 -0.474651 101
-1.828668 5.571179 0.066524 101
-2.220737 5.549778 -0.276669 101
-1.622097 5.527014 -0.211214 101
-2.006861 5.520346 -0.555239 100
-2.651260 5.572948 -0.452121 78
-1.620769 5.525909 -0.122639 101
-2.007252 5.524297 -0.464647 89
-2.644423 5.560973 -0.356130 80
-1.786500 5.451939 -1.047381 101
-2.019692 5.561432 -0.194213 67
-2.422308 5.543911 -0.642287 71
-1.796400 5.485250 -0.646404 101
-2.016813 5.556398 -0.103179 81
-2.426637 5.556353 -0.549655 101
-1.806564 5.519405 -0.380646 101
-2.192006 5.491283 -0.868039 100
-2.431664 5.570401 -0.269624 80
-1.803519 5.513222 -0.290807 101
-2.203220 5.522058 -0.642723 96
-1.802360 5.521785 -0.201822 101
-2.197140 5.517202 -0.549862 101
-1.593660 5.463494 -0.648428 101
-1.810868 5.550996 -0.113132 101
-2.204981 5.539587 -0.459820 101
-1.600532 5.490467 -0.385871 101
-1.979673 5.476552 -0.947771 69
-2.208067 5.550040 -0.184583 101
-2.620312 5.533813 -0.638134 1
-1.604434 5.507282 -0.298615 101
-1.986007 5.496951 -0.643198 65
-2.231572 5.611852 -0.093818 28
-2.650542 5.600078 -0.549679 101
-1.613484 5.541794 -0.034252 101
-1.997111 5.530578 -0.374067 87
-1.619219 5.564959 0.054625 101
-1.996544 5.531905 -0.283522 99
-2.395363 5.512049 -0.807248 65
-1.792060 5.508959 -0.558833 84
-2.000647 5.546176 -0.012349 69
-2.401197 5.528004 -0.453171 101
-1.787418 5.497813 -0.468181 74
-2.423434 5.581750 -0.363656 77
-1.585806 5.467160 -0.560161 101
-1.795427 5.531885 -0.023347 101
-2.191630 5.530253 -0.366964 101
-1.595979 5.505673 -0.475312 101
-1.801806 5.554701 0.066251 101
-2.196937 5.546351 -0.276114 101
-1.600569 5.524964 -0.210921 101
-1.986232 5.523570 -0.554863 100
-2.616479 5.549694 -0.449491 71
-1.600358 5.527691 -0.122553 101
-1.982561 5.516260 -0.463386 91
-2.613079 5.544884 -0.354513 84
-1.763822 5.446911 -1.045226 101
-1.994861 5.553398 -0.193688 67
-2.401361 5.548682 -0.641865 86
-1.778466 5.495270 -0.646849 101
-1.994702 5.555876 -0.103039 86
-2.397738 5.542852 -0.547488 101
-1.788515 5.529476 -0.380908 101
-2.174279 5.502582 -0.868620 100
-2.410619 5.575188 -0.269446 93
-1.784263 5.519484 -0.290807 101
-2.179549 5.518619 -0.641433 96
-1.783075 5.528043 -0.201822 101
-2.167643 5.498900 -0.547280 101
-1.572380 5.461386 -0.647522 101
-1.789026 5.549671 -0.112977 101
-2.184169 5.543540 -0.459513 101
-1.579150 5.488349 -0.385333 101
-1.959215 5.479712 -0.947129 76
-2.185750 5.550274 -0.184336 101
-2.602669 5.546527 -0.638549 35
-1.584097 5.509010 -0.298407 101
-1.968145 5.507594 -0.643635 70
-2.201715 5.593556 -0.093383 100
-2.612367 5.569616 -0.545790 100
-1.594129 5.547392 -0.034252 101
-1.971080 5.518718 -0.372797 83
-1.975879 5.535078 -0.283329 97
-2.374540 5.516736 -0.806715 86
-1.770382 5.507600 -0.558065 85
-1.974554 5.534289 -0.012307 60
-2.378733 5.529024 -0.452572 101
-1.766996 5.500223 -0.467858 74
-2.402358 5.586508 -0.363417 87
-1.564521 5.465008 -0.559378 101
-1.776106 5.538119 -0.023347 101
-2.173770 5.541586 -0.367210 101
-1.573461 5.499713 -0.474321 101
-1.778743 5.549531 0.066115 101
-2.173187 5.542826 -0.275559 101
-1.580175 5.526674 -0.210775 101
-1.968273 5.534222 -0.555239 101
-2.588648 5.540721 -0.448029 74
-1.581053 5.533244 -0.122553 101
-1.961958 5.519390 -0.463070 89
-2.602156 5.572063 -0.355668 100
-1.745997 5.456782 -1.045944 101
-1.975463 5.560328 -0.193688 72
-2.372576 5.535095 -0.639331 73
-1.759273 5.501444 -0.646849 101
-1.972620 5.555268 -0.102899 89
-2.381513 5.558511 -0.548210 101
-1.766772 5.528081 -0.380385 101
-2.152175 5.502767 -0.867458 100
-2.386424 5.572548 -0.268915 100
-1.763770 5.521873 -0.290606 101
-2.160272 5.526193 -0.641433 93
-1.758661 5.514882 -0.201128 101
-2.142154 5.487507 -0.545436 101
-1.553174 5.462747 -0.647070 101
-1.764541 5.536521 -0.112590 101
-2.162875 5.543321 -0.458898 101
-1.562032 5.497395 -0.385602 101
-1.935765 5.471291 -0.944559 72
-2.165880 5.553767 -0.184213 101
-2.582584 5.551521 -0.638134 100
-1.562546 5.502705 -0.297784 101
-1.943243 5.495348 -0.641447 65
-2.171534 5.571015 -0.092886 101
-2.573724 5.534894 -0.541548 94
-1.573541 5.544952 -0.034204 101
-1.950108 5.517697 -0.372289 79
-1.956182 5.537832 -0.283136 97
-2.348457 5.506346 -0.804053 94
-1.744873 5.490673 -0.555761 90
-1.953528 5.533263 -0.012290 63
-2.352564 5.518535 -0.451072 101
-1.747540 5.502252 -0.467535 73
-2.377558 5.579751 -0.362463 85
-1.546390 5.470166 -0.559378 101
-1.758940 5.547791 -0.023363 101
-2.146708 5.526435 -0.365733 101
-1.553047 5.497228 -0.473660 101
-1.757914 5.547772 0.066024 101
-2.147564 5.531378 -0.274634 101
-2.558031 5.520451 -0.763234 0
-1.560753 5.528037 -0.210628 101
-1.943300 5.521936 -0.553357 100
-2.571937 5.552895 -0.448322 71
-1.559437 5.526910 -0.122298 101
-1.940998 5.518342 -0.462440 100
-2.585342 5.584285 -0.355899 100
-1.721958 5.443783 -1.042352 101
-1.953036 5.555533 -0.193295 72
-2.343323 5.517304 -0.636375 79
-1.735029 5.488297 -0.644623 101
-1.948884 5.546686 -0.102620 87
-2.352170 5.540709 -0.545682 101
-1.742418 5.514880 -0.379077 101
-2.126769 5.491421 -0.864553 100
-2.361688 5.565717 -0.268206 101
-1.741841 5.516263 -0.290005 101
-2.139063 5.525909 -0.640574 100
-2.373015 5.595014 -0.176128 21
-1.738187 5.517178 -0.200989 101
-2.130152 5.513532 -0.547280 101
-1.533016 5.464311 -0.646617 101
-1.747599 5.550278 -0.112745 101
-2.133448 5.524797 -0.456745 101
-1.541753 5.498972 -0.385333 101
-1.917956 5.481742 -0.945201 68
-2.140719 5.546375 -0.183718 101
-2.568183 5.571342 -0.639378 101
-1.543330 5.508125 -0.297784 101
-1.922738 5.498344 -0.641010 61
-2.133362 5.530052 -0.092078 100
-2.549387 5.532988 -0.540488 76
-1.928207 5.516932 -0.371781 85
-1.928945 5.521992 -0.281981 100
-2.321519 5.496246 -0.801390 100
-1.729289 5.508122 -0.556913 82
-1.934216 5.540043 -0.012290 80
-2.327096 5.512009 -0.449872 101
-1.727149 5.504508 -0.467212 68
-2.356534 5.584329 -0.362224 85
-1.523040 5.460185 -0.557811 101
-1.732423 5.530984 -0.023267 101
-2.123139 5.522703 -0.364994 101
-1.529604 5.487246 -0.472338 101
-1.738574 5.553864 0.066024 101
-2.129713 5.542557 -0.274819 101
-2.528846 5.507688 -0.760247 28
-1.537197 5.518037 -0.210042 101
-1.918819 5.513628 -0.551851 100
-2.555908 5.569071 -0.448906 88
-1.539108 5.528455 -0.122213 101
-1.920460 5.521302 -0.462125 91
-2.560884 5.582366 -0.355206 100
-1.702994 5.449746 -1.042352 101
-1.927118 5.543418 -0.192639 69
-2.321015 5.518096 -0.635531 81
-1.712359 5.482920 -0.643288 101
-1.924314 5.538324 -0.102341 87
-2.331326 5.545191 -0.545321 101
-1.718459 5.505669 -0.378030 101
-2.104813 5.491398 -0.863391 100
-2.343853 5.577586 -0.268383 100
-1.721448 5.518476 -0.289805 101
-2.114134 5.518464 -0.638854 100
-2.339599 5.570059 -0.175085 51
-1.720105 5.527029 -0.201128 101
-2.108048 5.513493 -0.546543 101
-1.510752 5.458138 -0.645258 101
-1.724651 5.544888 -0.112512 101
-2.114150 5.532211 -0.456745 101
-1.521484 5.500474 -0.385063 101
-1.737681 5.590058 0.156357 44
-1.896228 5.480941 -0.943916 69
-2.121346 5.553813 -0.183718 101
-2.538803 5.558560 -0.636890 101
-1.524094 5.513479 -0.297784 101
-1.903533 5.505022 -0.641010 70
-2.115472 5.541201 -0.092141 100
-2.535022 5.552727 -0.541548 90
-1.905026 5.512310 -0.371020 87
-1.909658 5.528692 -0.281981 100
-2.300790 5.500659 -0.800858 100
-1.710052 5.514124 -0.556913 84
-1.914866 5.546762 -0.012290 83
-2.303226 5.509058 -0.448973 101
-1.705563 5.502887 -0.466566 74
-2.326250 5.566731 -0.360554 88
-1.506083 5.473144 -0.558594 101
-1.711923 5.533176 -0.023251 100
-2.101009 5.522617 -0.364501 101
-1.513611 5.504083 -0.473329 101
-1.719177 5.559898 0.066024 101
-2.106092 5.538753 -0.274264 101
-2.522753 5.545383 -0.764230 38
-1.514749 5.511806 -0.209602 101
-1.895674 5.508996 -0.550722 100
-2.528196 5.559802 -0.447445 83
-1.519801 5.533793 -0.122213 101
-1.899878 5.524201 -0.461809 91
-2.541383 5.591270 -0.355206 100
-1.681640 5.448137 -1.040916 101
-1.906457 5.546331 -0.192507 70
-2.298680 5.518821 -0.634686 89
-1.693210 5.488863 -0.643288 101
-1.902371 5.537443 -0.102201 87
-2.301237 5.527552 -0.542793 101
-1.700406 5.515449 -0.378292 101
-2.080018 5.483911 -0.861067 100
-2.316693 5.567286 -0.267496 100
-1.698646 5.512997 -0.289204 101
-2.089219 5.510935 -0.637134 95
-2.312464 5.559733 -0.174506 69
-1.695141 5.518011 -0.200572 101
-2.080782 5.502555 -0.544699 101
-1.490736 5.463639 -0.645258 101
-1.700795 5.539702 -0.112280 101
-2.089629 5.528730 -0.455822 101
-1.500264 5.502163 -0.384794 101
-1.718353 5.600213 0.156464 79
-1.876127 5.487854 -0.943916 69
-2.095324 5.546591 -0.183224 101
-2.511854 5.553328 -0.635232 101
-1.501775 5.511320 -0.297368 101
-1.880772 5.504437 -0.640135 61
-2.093735 5.545176 -0.092078 101
-2.514653 5.561981 -0.541548 99
-1.883520 5.515477 -0.370766 92
-2.513103 5.561017 -0.258972 22
-1.885509 5.524310 -0.281403 100
-2.277581 5.501729 -0.799793 100
-1.681672 5.493705 -0.554224 91
-1.889358 5.538599 -0.012256 100
-2.278443 5.506406 -0.448073 101
-1.683050 5.501477 -0.465921 76
-2.299727 5.560461 -0.359599 88
-1.484971 5.474785 -0.558203 101
-1.689295 5.531763 -0.023218 101
-2.072318 5.507861 -0.363024 101
-1.494471 5.513441 -0.473660 101
-1.696452 5.558511 0.065934 101
-2.080152 5.531475 -0.273525 100
-2.490999 5.529262 -0.760745 41
-1.488266 5.494171 -0.208723 101
-1.872906 5.508366 -0.549969 100
-2.506163 5.565393 -0.447152 88
-1.877052 5.523576 -0.461179 84
-2.507760 5.571416 -0.353358 98
-1.658220 5.442972 -1.038761 101
-1.882259 5.541925 -0.192114 72
-2.270858 5.508822 -0.632575 77
-1.670765 5.487427 -0.642398 101
-1.878206 5.533017 -0.101992 87
-2.280962 5.535949 -0.542793 101
-1.681341 5.525462 -0.378553 101
-2.057124 5.484087 -0.859905 101
-2.299315 5.583130 -0.267851 100
-1.676103 5.511542 -0.288804 101
-2.067610 5.514832 -0.636704 95
-2.281417 5.542290 -0.173695 77
-1.675921 5.523879 -0.200572 101
-2.061614 5.509766 -0.544699 101
-2.711943 5.566824 -0.441695 30
-1.469622 5.461125 -0.644353 101
-1.680320 5.541769 -0.112202 101
-2.070349 5.535979 -0.455822 101
-1.477952 5.495801 -0.383986 101
-1.693009 5.587039 0.155930 84
-1.853179 5.483145 -0.941988 67
-2.074563 5.550121 -0.183101 101
-2.484332 5.543904 -0.633159 101
-1.480447 5.508815 -0.296952 101
-1.855177 5.492136 -0.637947 66
-2.078558 5.563694 -0.092265 101
-2.496844 5.574364 -0.541902 100
-1.864228 5.522027 -0.370766 87
-2.483850 5.547883 -0.257954 59
-1.858504 5.508160 -0.280247 100
-2.249294 5.487656 -0.796598 101
-1.664723 5.507185 -0.554993 87
-1.866111 5.533813 -0.012231 100
-2.257630 5.510662 -0.447773 101
-1.661444 5.499711 -0.465275 74
-1.870120 5.548816 0.077675 17
-2.277190 5.561100 -0.359122 90
-1.460564 5.460746 -0.556244 101
-1.665210 5.522351 -0.023154 100
-2.052934 5.515115 -0.363024 101
-1.467845 5.491710 -0.471346 101
-1.672256 5.549131 0.065752 101
-2.052305 5.516294 -0.272415 100
-2.455343 5.501754 -0.755766 42
-1.471989 5.510968 -0.209162 101
-1.849676 5.503608 -0.548840 100
-2.480033 5.559618 -0.445983 95
-1.857554 5.530164 -0.461179 88
-2.479959 5.561992 -0.352203 98
-1.636721 5.441257 -1.037324 101
-1.862676 5.548537 -0.192114 78
-2.251390 5.516807 -0.632575 79
-1.651357 5.493299 -0.642398 101
-1.858635 5.539622 -0.101992 91
-2.262883 5.547666 -0.543154 101
-1.660630 5.527555 -0.378292 101
-2.032198 5.476490 -0.857581 100
-2.272002 5.572730 -0.266965 90
-1.658868 5.525097 -0.289204 101
-2.043914 5.510935 -0.635415 100
-2.264789 5.557742 -0.173926 90
-1.649745 5.506719 -0.199739 101
-2.034072 5.494517 -0.542486 101
-2.690760 5.572664 -0.441410 101
-1.448511 5.458539 -0.643447 101
-1.660965 5.547600 -0.112202 101
-2.039941 5.513249 -0.453361 101
-2.692442 5.578569 -0.346317 23
-1.456713 5.493211 -0.383448 101
-1.665473 5.566100 0.155183 70
-1.834028 5.489581 -0.941988 76
-2.053790 5.553579 -0.182977 101
-2.463351 5.548906 -0.632744 101
-1.459162 5.506226 -0.296536 101
-1.833476 5.491036 -0.637072 67
-2.049418 5.544655 -0.091830 101
-2.461210 5.546627 -0.538367 100
-1.841151 5.517141 -0.370004 94
-2.466090 5.560173 -0.258124 80
-1.838001 5.510824 -0.280055 100
-2.228634 5.491800 -0.796066 101
-1.640934 5.497701 -0.553456 100
-1.846783 5.540293 -0.012231 101
-2.238380 5.518508 -0.447773 101
-1.642236 5.505477 -0.465275 77
-1.849476 5.551515 0.077622 72
-2.256264 5.565315 -0.358883 94
-1.441493 5.465811 -0.556244 101
-1.648206 5.535798 -0.023186 101
-2.032290 5.518501 -0.362777 101
-1.449682 5.500655 -0.471676 101
-1.651735 5.551101 0.065707 101
-2.030277 5.515924 -0.272045 101
-2.431308 5.499401 -0.754272 45
-1.832964 5.517589 -0.549593 100
-2.462224 5.571890 -0.446276 85
-1.834470 5.525261 -0.460233 88
-2.462142 5.574268 -0.352434 100
-1.619958 5.454482 -1.038761 101
-1.840779 5.547417 -0.191851 73
-2.230629 5.520944 -0.632152 81
-1.631041 5.495219 -0.641952 101
-1.835510 5.534688 -0.101782 87
-2.236046 5.537062 -0.541349 101
-1.639055 5.525664 -0.377768 101
-2.015797 5.490981 -0.858743 101
-2.252535 5.580626 -0.266965 96
-1.635030 5.515532 -0.288403 101
-2.023295 5.514303 -0.634985 100
-2.242384 5.558197 -0.173695 91
-2.659342 5.548491 -0.533978 47
-1.632781 5.520111 -0.200016 101
-2.013510 5.497844 -0.542117 101
-2.662680 5.564027 -0.439987 100
-1.428443 5.459717 -0.642994 101
-1.641590 5.553364 -0.112202 101
-2.026167 5.535317 -0.454592 101
-2.671230 5.584331 -0.346093 59
-1.436520 5.494401 -0.383178 101
-1.811141 5.484703 -0.940061 80
-2.027524 5.541941 -0.182359 101
-2.439162 5.546545 -0.631500 101
-1.441953 5.519016 -0.296952 101
-1.814298 5.497403 -0.637072 70
-2.032798 5.559288 -0.091954 101
-2.443437 5.558832 -0.538720 100
-1.821881 5.523534 -0.370004 83
-2.445059 5.565088 -0.257954 89
-1.816252 5.509617 -0.279669 100
-2.207973 5.495868 -0.795533 101
-1.619483 5.495757 -0.552688 100
-1.826181 5.542906 -0.012223 100
-2.217617 5.522587 -0.447473 101
-1.621882 5.507351 -0.464952 74
-1.830086 5.557937 0.077622 100
-2.235336 5.569451 -0.358645 93
-1.422405 5.470809 -0.556244 101
-1.625489 5.530005 -0.023138 100
-2.013015 5.525561 -0.362777 101
-1.428468 5.497965 -0.471015 101
-1.628966 5.545320 0.065571 101
-2.013744 5.530487 -0.272415 101
-2.415281 5.515126 -0.755268 52
-1.809966 5.512603 -0.548463 100
-2.045053 5.619444 -0.001044 99
-2.434761 5.562178 -0.444814 83
-1.810199 5.516475 -0.458972 91
-2.433065 5.560878 -0.351049 100
-1.594266 5.437447 -1.034450 101
-1.816420 5.538613 -0.191326 78
-2.205435 5.513924 -0.630463 73
-1.611849 5.500878 -0.641952 101
-1.812443 5.529660 -0.101573 89
-2.215226 5.541134 -0.540987 101
-1.615270 5.516030 -0.376722 101
-1.989863 5.479384 -0.855838 101
-2.224145 5.566190 -0.265901 98
-1.619133 5.532709 -0.289004 101
-1.999964 5.510117 -0.633695 99
-2.221485 5.562278 -0.173579 88
-2.653636 5.586536 -0.536745 101
-1.611037 5.514003 -0.199600 101
-1.991130 5.493281 -0.541011 101
-2.640727 5.565649 -0.439418 100
-1.410289 5.464434 -0.642994 101
-1.619761 5.547273 -0.111970 101
-1.998250 5.515773 -0.452439 101
-2.637253 5.560701 -0.344084 74
-1.419273 5.503004 -0.383448 101
-1.790476 5.483177 -0.938776 72
-2.011841 5.556158 -0.182606 101
-2.414382 5.540021 -0.629841 101
-1.791133 5.488267 -0.635322 72
-2.007556 5.547190 -0.091644 101
-2.413861 5.541330 -0.536246 100
-1.798638 5.514354 -0.368988 83
-2.423435 5.565822 -0.257615 93
-1.799270 5.519389 -0.279862 98
-2.185398 5.492085 -0.793936 101
-1.599109 5.493427 -0.551920 100
-1.805398 5.541297 -0.012206 100
-2.196429 5.522464 -0.446873 101
-1.601493 5.505011 -0.464306 77
-1.809280 5.556333 0.077515 93
-2.212542 5.565658 -0.357929 97
-1.399495 5.456169 -0.554285 101
-1.607329 5.535310 -0.023138 101
-1.992159 5.524628 -0.362285 101
-1.407470 5.491034 -0.470024 101
-1.609667 5.546788 0.065525 58
-1.990187 5.522022 -0.271675 101
-2.398772 5.526653 -0.755766 63
-1.785764 5.499560 -0.546581 100
-2.019871 5.607292 -0.001040 101
-2.405427 5.544499 -0.442769 100
-1.794620 5.529948 -0.459603 91
-2.413287 5.565137 -0.350818 96
-1.578699 5.450181 -1.035887 101
-1.794632 5.533104 -0.190933 76
-2.185961 5.517395 -0.630041 77
-1.589489 5.490829 -0.640172 101
-1.793176 5.531733 -0.101503 91
-2.197153 5.548326 -0.540987 101
-1.597308 5.521258 -0.376722 101
-1.972018 5.485832 -0.855838 100
-2.204546 5.569685 -0.265724 95
-2.624084 5.568581 -0.629634 50
-1.595594 5.518754 -0.288003 101
-1.972631 5.490390 -0.630686 100
-2.196040 5.550879 -0.172999 92
-2.615087 5.551870 -0.532595 101
-1.591923 5.523712 -0.199739 101
-1.969639 5.496792 -0.540642 101
-2.622007 5.578901 -0.439702 100
-1.392210 5.477270 -0.643900 101
-1.602739 5.564702 -0.112202 101
-1.979365 5.526814 -0.452746 101
-2.611759 5.559486 -0.343414 71
-1.397128 5.500432 -0.382909 101
-1.765520 5.474673 -0.936205 74
-1.982032 5.537145 -0.181742 101
-2.384604 5.526916 -0.627354 101
-1.769786 5.491011 -0.634884 70
-1.985864 5.550745 -0.091581 101
-2.395113 5.553799 -0.536599 100
-1.775966 5.513309 -0.368480 100
-2.399855 5.567327 -0.257276 100
-1.775355 5.514537 -0.279284 98
-2.162350 5.492680 -0.792871 101
-1.575667 5.487771 -0.550768 100
-1.778950 5.528838 -0.012164 98
-2.168870 5.511919 -0.445374 101
-1.579106 5.503179 -0.463660 74
-1.782780 5.543889 0.077250 95
-2.189205 5.566298 -0.357452 100
-1.377538 5.453543 -0.553502 101
-1.584827 5.533473 -0.023106 101
-1.966534 5.516850 -0.361300 101
-1.384408 5.484560 -0.469032 101
-1.965911 5.517987 -0.271120 101
-2.370665 5.517176 -0.753277 75
-1.761947 5.494692 -0.545452 100
-1.987229 5.580743 -0.001034 101
-2.383515 5.549613 -0.442476 100
-1.768255 5.517502 -0.458027 93
-2.386572 5.559267 -0.349894 100
-1.554389 5.440796 -1.033014 101
-1.771901 5.532030 -0.190670 79
-2.159917 5.510557 -0.628352 73
-1.568262 5.492796 -0.639726 101
-1.768012 5.523032 -0.101224 91
-2.172443 5.545214 -0.539904 101
-1.579251 5.534752 -0.377245 101
-1.947923 5.481835 -0.854095 101
-2.185574 5.581448 -0.265901 100
-2.581777 5.531286 -0.624343 67
-1.570974 5.509197 -0.287202 101
-1.956488 5.508826 -0.631975 99
-2.178595 5.566338 -0.173231 95
-2.584612 5.539750 -0.530520 101
-1.570445 5.521544 -0.199461 101
-1.947779 5.496126 -0.539904 101
-2.172619 5.562185 -0.081298 52
-2.587357 5.555469 -0.437141 101
-1.362460 5.439689 -0.638919 101
-1.578931 5.554874 -0.111892 101
-1.952072 5.511134 -0.450901 101
-2.592337 5.568569 -0.343414 85
-1.744002 5.473279 -0.934920 80
-1.961357 5.540261 -0.181618 101
-2.363734 5.531547 -0.626939 101
-1.745782 5.482000 -0.633134 72
-1.959806 5.538791 -0.091271 101
-2.358497 5.521820 -0.532711 100
-1.757921 5.523279 -0.368734 89
-2.372561 5.557293 -0.256428 100
-1.752461 5.509278 -0.278706 89
-2.140285 5.492807 -0.791806 101
-1.557587 5.497068 -0.551152 100
-1.762064 5.542638 -0.012181 100
-2.149617 5.519455 -0.445374 101
-1.559887 5.508657 -0.463660 77
-1.757362 5.531019 0.076985 100
-2.165416 5.562743 -0.356736 100
-2.570682 5.536407 -0.733275 3
-1.356571 5.450592 -0.552719 101
-1.567678 5.546670 -0.023138 52
-1.940628 5.504854 -0.360068 101
-1.361406 5.473885 -0.467710 101
-1.943982 5.517279 -0.270751 101
-2.343621 5.507157 -0.750787 81
-1.746364 5.512198 -0.546581 100
-1.961093 5.568781 -0.001030 101
-2.362568 5.554228 -0.442184 96
-1.747780 5.519839 -0.457712 100
-2.359340 5.549189 -0.348739 98
-1.535388 5.446189 -1.033014 101
-1.756199 5.549616 -0.191064 72
-2.144985 5.529188 -0.629619 82
-1.545845 5.486758 -0.638391 101
-1.748722 5.529170 -0.101224 82
-2.148753 5.541620 -0.538821 101
-1.554513 5.521020 -0.375937 101
-1.927464 5.484868 -0.853514 101
-2.158858 5.570413 -0.265015 100
-2.565794 5.547487 -0.625157 57
-1.551734 5.514647 -0.287202 101
-1.931975 5.500613 -0.630256 100
-2.157707 5.570180 -0.173115 94
-2.566931 5.552355 -0.530866 101
-1.550148 5.523125 -0.199322 101
-1.928648 5.502868 -0.539904 101
-2.160468 5.588362 -0.081570 100
-2.561328 5.549944 -0.436003 101
-1.342552 5.440544 -0.638466 101
-1.558493 5.556490 -0.111815 101
-1.932863 5.517900 -0.450901 101
-2.571252 5.573938 -0.343191 90
-1.721345 5.468031 -0.932993 69
-1.936737 5.531974 -0.181124 101
-2.342876 5.536094 -0.626524 101
-1.727819 5.491857 -0.633572 67
-1.943092 5.553152 -0.091395 101
-2.340750 5.533693 -0.533064 100
-1.735004 5.517968 -0.367972 97
-2.348444 5.554513 -0.255919 100
-1.731962 5.511569 -0.278514 98
-2.118186 5.492870 -0.790741 100
-1.537232 5.498661 -0.550768 100
-1.740222 5.541150 -0.012164 95
-2.123079 5.508349 -0.443874 101
-1.541611 5.517940 -0.463983 73
-1.740329 5.544786 0.077091 100
-2.145874 5.570311 -0.356736 100
-2.541270 5.523750 -0.730412 32
-1.334508 5.443740 -0.551543 101
-1.919900 5.507890 -0.359822 101
-1.341132 5.474784 -0.467379 101
-1.923185 5.520331 -0.270566 101
-2.319548 5.504422 -0.749294 83
-1.720929 5.499332 -0.544699 101
-1.936142 5.560566 -0.001028 101
-2.336732 5.547836 -0.441015 95
-1.725859 5.518377 -0.457081 88
-2.338142 5.553822 -0.348508 100
-1.512921 5.440221 -1.030859 101
-1.724600 5.517645 -0.189752 75
-2.121106 5.525612 -0.628352 82
-1.524243 5.484547 -0.637501 101
-1.727905 5.531521 -0.101154 80
-2.126227 5.541770 -0.538098 101
-1.535961 5.530353 -0.376199 101
-1.901476 5.472987 -0.850609 100
-2.129042 5.551928 -0.263774 100
-2.539443 5.542096 -0.623529 63
-1.527837 5.504733 -0.286400 101
-1.901964 5.477396 -0.626816 100
-2.129297 5.555418 -0.172420 91
-2.543849 5.554203 -0.530174 101
-1.525525 5.509240 -0.198627 101
-1.906819 5.502040 -0.539167 101
-2.126656 5.558514 -0.081025 99
-2.540280 5.555223 -0.435718 101
-1.321676 5.437473 -0.637560 101
-1.533755 5.542624 -0.111427 101
-1.908369 5.509540 -0.449671 101
-2.541818 5.561086 -0.341851 90
-1.701075 5.470236 -0.932350 71
-1.917415 5.538701 -0.181124 101
-2.312773 5.518554 -0.623622 101
-1.705099 5.486464 -0.632259 73
-1.914542 5.533443 -0.090960 101
-2.324499 5.549180 -0.533771 100
-1.716916 5.527803 -0.368226 87
-2.327497 5.558990 -0.255749 100
-1.711528 5.513765 -0.278321 100
-2.097586 5.496526 -0.790208 101
-2.340143 5.591862 -0.164027 100
-1.511678 5.480964 -0.548463 93
-1.718499 5.539550 -0.012147 98
-2.100996 5.508273 -0.443274 101
-1.518103 5.507913 -0.462692 77
-1.717410 5.539367 0.076932 100
-2.122149 5.566575 -0.356020 100
-2.530210 5.550656 -0.732798 44
-1.317367 5.456105 -0.552327 101
-1.901963 5.518332 -0.360068 101
-1.898698 5.511899 -0.269826 101
-2.297263 5.505159 -0.748298 83
-1.701722 5.505306 -0.544699 100
-1.918022 5.571073 -0.001028 101
-2.314281 5.548595 -0.440431 99
-1.705408 5.520558 -0.456766 83
-2.311058 5.543520 -0.347353 100
-1.491839 5.437879 -1.029422 101
-1.706509 5.527451 -0.189883 78
-2.096155 5.518109 -0.626663 84
-1.505089 5.489834 -0.637501 101
-1.707407 5.533698 -0.101084 89
-2.105456 5.545433 -0.537737 101
-1.514537 5.527982 -0.375676 101
-1.877217 5.464620 -0.848285 101
-2.112485 5.566798 -0.264128 100
-2.518437 5.547303 -0.623122 66
-1.507558 5.506180 -0.286200 101
-1.887998 5.499046 -0.628536 100
-2.107057 5.555340 -0.172188 89
-2.524445 5.563049 -0.530174 101
-1.508391 5.522244 -0.198905 101
-1.886311 5.504895 -0.538798 101
-2.094495 5.532238 -0.080535 76
-2.517581 5.556788 -0.435149 101
-1.300837 5.434323 -0.636655 101
-1.889126 5.516168 -0.449671 101
-2.524039 5.573563 -0.342074 99
-1.680811 5.472366 -0.931707 65
-1.894186 5.534012 -0.180753 101
-2.296545 5.533942 -0.624451 101
-1.687104 5.496183 -0.632696 70
-1.896509 5.543877 -0.091022 101
-2.294428 5.531497 -0.531297 100
-1.694098 5.522314 -0.367464 97
-2.298895 5.544930 -0.254732 100
-1.691100 5.515886 -0.278129 100
-2.074185 5.492689 -0.788611 100
-2.306833 5.566751 -0.163053 101
-1.494627 5.493891 -0.549231 100
-1.699152 5.545515 -0.012147 92
-2.084572 5.523036 -0.443874 101
-1.497821 5.509331 -0.462369 78
-1.696893 5.541503 0.076879 101
-2.104115 5.577684 -0.356259 96
-2.515723 5.570312 -0.734229 51
-1.299234 5.464543 -0.552719 101
-1.882689 5.524938 -0.360068 101
-2.502582 5.548759 -0.246608 6
-1.880735 5.522276 -0.270011 100
-2.273485 5.502140 -0.746804 83
-1.682495 5.511212 -0.544699 100
-1.898564 5.577734 -0.001028 101
-2.291853 5.549265 -0.439846 86
-1.681473 5.511221 -0.455505 84
-2.290170 5.547862 -0.347122 101
-1.475932 5.454449 -1.031577 101
-1.689536 5.541022 -0.190145 76
-2.075481 5.521669 -0.626240 73
-2.733090 5.592958 -0.432021 8
-1.484879 5.491218 -0.637055 101
-1.685748 5.531972 -0.100945 100
-2.080482 5.537832 -0.536293 101
-1.493149 5.525528 -0.375152 101
-1.690199 5.549960 0.166108 100
-1.859403 5.474886 -0.848866 100
-2.084612 5.551692 -0.263065 95
-2.494161 5.545173 -0.621901 68
-1.489370 5.515265 -0.286400 101
-1.866235 5.498072 -0.627676 95
-2.087652 5.562661 -0.172188 84
-2.498475 5.557289 -0.528791 101
-1.485857 5.511790 -0.198350 101
-1.862879 5.496048 -0.537323 101
-2.071874 5.527937 -0.080372 65
-2.497453 5.561490 -0.434864 101
-1.281865 5.434746 -0.636202 101
-1.868232 5.514858 -0.449055 101
-2.502239 5.574629 -0.341628 98
-1.662642 5.477914 -0.931707 68
-1.873247 5.532693 -0.180506 101
-2.272118 5.526814 -0.622793 101
-1.665413 5.490331 -0.631384 73
-1.876840 5.546344 -0.090960 101
-2.274566 5.535388 -0.530944 100
-1.675803 5.527893 -0.367464 94
-2.283559 5.559906 -0.255071 100
-1.671688 5.517626 -0.277936 101
-2.051841 5.488379 -0.787013 101
-2.280815 5.555856 -0.162512 101
-1.472336 5.483418 -0.547695 100
-1.677343 5.539614 -0.012122 96
-2.062124 5.518685 -0.442974 101
-1.478597 5.510394 -0.462046 77
-1.676277 5.539417 0.076773 100
-2.082901 5.577117 -0.355781 96
-2.479475 5.538713 -0.728981 47
-1.863228 5.527318 -0.359822 101
-2.500627 5.593449 -0.248227 100
-1.858750 5.517066 -0.269456 101
-2.253889 5.505908 -0.746307 83
-1.660944 5.505268 -0.543570 101
-1.871309 5.557400 -0.001023 101
-2.269093 5.545682 -0.438969 83
-1.661091 5.509070 -0.454874 89
-2.273478 5.559038 -0.347353 100
-1.452982 5.440245 -1.027985 101
-1.667917 5.535043 -0.189752 73
-2.054610 5.520981 -0.625396 79
-2.706055 5.583925 -0.430636 50
-1.466905 5.496047 -0.637055 101
-1.664180 5.525970 -0.100735 94
-2.060963 5.540875 -0.535931 101
-1.471997 5.518809 -0.374368 101
-1.667442 5.540139 0.165650 101
-1.836458 5.465929 -0.846542 101
-2.067849 5.562221 -0.263242 100
-2.469543 5.538757 -0.620273 66
-1.468270 5.508518 -0.285800 101
-1.844478 5.492825 -0.626386 100
-2.063910 5.554455 -0.171725 84
-2.478697 5.561776 -0.528445 101
-1.839887 5.491188 -0.536217 101
-2.049784 5.527636 -0.080263 81
-2.468294 5.548301 -0.433157 101
-1.261988 5.435317 -0.635749 101
-1.848970 5.521346 -0.449055 101
-2.471405 5.557785 -0.340065 98
-1.637844 5.464775 -0.928495 72
-1.853923 5.539199 -0.180506 101
-2.252812 5.534711 -0.622793 101
-1.646239 5.496111 -0.631384 69
-1.851125 5.533897 -0.090649 101
-2.252227 5.535912 -0.530237 100
-1.649628 5.510763 -0.365941 87
-2.256610 5.549333 -0.254223 100
-1.650127 5.515772 -0.277551 100
-2.032670 5.495508 -0.787013 100
-2.252374 5.541558 -0.161863 101
-2.686538 5.571919 -0.524870 4
-1.453187 5.488524 -0.547695 100
-1.657996 5.545435 -0.012122 98
-2.041465 5.522108 -0.442674 101
-1.456293 5.503959 -0.461077 78
-1.654641 5.537570 0.076667 101
-2.059268 5.573118 -0.355065 100
-2.450466 5.525551 -0.726119 49
-1.837613 5.514850 -0.358590 101
-2.474613 5.587526 -0.247579 101
-1.836956 5.515939 -0.269086 101
-2.233165 5.510064 -0.745809 81
-1.640580 5.507215 -0.543193 100
-1.856952 5.579080 -0.001026 101
-2.252717 5.560964 -0.439554 90
-1.639575 5.507191 -0.454244 91
-1.859597 5.590131 0.089463 41
-2.252560 5.563239 -0.347122 100
-1.427970 5.422452 -1.023675 101
-1.646306 5.533168 -0.189489 72
-2.033951 5.524387 -0.624974 79
-2.686547 5.593337 -0.430636 66
-1.441641 5.478068 -0.634384 101
-1.646021 5.535579 -0.100805 87
-2.037483 5.536820 -0.534848 101
-2.676061 5.573882 -0.333777 6
-1.452724 5.523913 -0.374368 101
-1.814873 5.464794 -0.845379 100
-2.042903 5.554403 -0.262533 100
-2.448587 5.543704 -0.619866 66
-1.448017 5.509746 -0.285599 101
-1.825293 5.499230 -0.626386 100
-2.038990 5.546614 -0.171261 86
-2.451220 5.552166 -0.526716 101
-1.820708 5.497577 -0.536217 101
-2.037365 5.553532 -0.080535 78
-2.448912 5.556883 -0.433157 101
-1.254516 5.490056 -0.641636 21
-1.825926 5.516408 -0.448133 101
-2.447160 5.555413 -0.339395 85
-1.616518 5.462887 -0.927209 79
-1.825787 5.519066 -0.179641 101
-2.223069 5.516711 -0.619890 101
-1.627043 5.501824 -0.631384 63
-1.828030 5.528933 -0.090463 101
-2.228423 5.532653 -0.529176 101
-1.632645 5.524144 -0.366448 100
-2.235734 5.553469 -0.254054 100
-1.629732 5.517667 -0.277358 100
-2.009388 5.491401 -0.785416 101
-2.233017 5.549387 -0.161863 101
-2.670509 5.588456 -0.525547 101
-1.428991 5.474301 -0.545775 99
-1.634099 5.535843 -0.012089 98
-2.011216 5.499232 -0.440275 101
-1.435059 5.501293 -0.460432 77
-1.633037 5.535640 0.076560 100
-2.035690 5.569022 -0.354350 100
-2.431163 5.534071 -0.726119 49
-1.818351 5.521231 -0.358590 101
-2.437432 5.555871 -0.245798 101
-1.816441 5.518522 -0.268901 100
-2.213918 5.517826 -0.745809 81
-1.619099 5.505268 -0.542440 100
-1.834966 5.577928 -0.001025 101
-2.228837 5.557685 -0.438677 91
-1.621466 5.516706 -0.454559 100
-1.840072 5.596588 0.089463 101
-2.230156 5.563654 -0.346661 100
-1.412989 5.442639 -1.026548 101
-1.625855 5.535045 -0.189358 86
-2.011932 5.523978 -0.624129 82
-2.642995 5.552238 -0.426759 69
-1.425505 5.494610 -0.635720 101
-1.624435 5.533616 -0.100665 89
-2.016780 5.540155 -0.534487 101
-2.665169 5.601222 -0.334855 77
-1.431429 5.521223 -0.373844 101
-1.793317 5.463575 -0.844217 100
-2.020770 5.553990 -0.262178 100
-2.426031 5.544926 -0.619052 65
-1.801128 5.490453 -0.624667 99
-2.019617 5.553698 -0.171261 83
-2.427035 5.549736 -0.525678 101
-1.792845 5.477397 -0.533635 101
-2.017978 5.560606 -0.080535 75
-2.416741 5.536139 -0.430880 101
-1.804186 5.515165 -0.447518 101
-2.013141 5.550169 0.010304 5
-2.426163 5.560258 -0.339171 97
-1.593013 5.453337 -0.924639 74
-1.805271 5.521605 -0.179518 101
-2.203802 5.524436 -0.619890 101
-1.604484 5.496020 -0.630071 71
-1.807475 5.531479 -0.090401 101
-2.207620 5.536697 -0.528823 100
-1.609992 5.518315 -0.365687 97
-2.213369 5.553817 -0.253714 94
-2.625989 5.542593 -0.615418 40
-1.610451 5.523325 -0.277358 100
-1.987499 5.490930 -0.784351 100
-2.219541 5.572011 -0.162296 101
-2.645858 5.586942 -0.524532 101
-1.406883 5.467691 -0.544622 100
-1.610274 5.526157 -0.012055 97
-1.990636 5.502473 -0.439975 101
-1.413843 5.498551 -0.459786 77
-2.009430 5.557326 -0.353157 98
-2.403888 5.524324 -0.723733 50
-1.795328 5.516166 -0.357852 101
-2.414805 5.557028 -0.245474 101
-1.794658 5.517242 -0.268531 101
-2.187282 5.507092 -0.743319 81
-1.598721 5.507073 -0.542064 101
-1.808022 5.561489 -0.001021 101
-2.204966 5.554325 -0.437800 93
-1.602153 5.522346 -0.454559 100
-1.818007 5.595384 0.089341 101
-2.207730 5.564000 -0.346199 100
-1.390031 5.432302 -1.023675 101
-1.604247 5.533021 -0.189096 79
-1.991240 5.527243 -0.623707 82
-2.616738 5.547018 -0.425651 74
-1.402324 5.484161 -0.633939 101
-1.602828 5.531585 -0.100526 100
-1.993326 5.535937 -0.533403 101
-2.623400 5.563552 -0.332052 100
-1.411101 5.522334 -0.373583 101
-1.774177 5.469820 -0.844217 100
-1.997252 5.549751 -0.261647 100
-2.400272 5.538782 -0.617424 68
-1.780662 5.492944 -0.624237 100
-2.000155 5.560737 -0.171261 86
-2.401248 5.543574 -0.524295 101
-1.773715 5.483623 -0.533635 101
-1.995853 5.560087 -0.080426 67
-2.398985 5.548204 -0.431165 101
-1.782470 5.513839 -0.446902 101
-2.009964 5.602343 0.010388 94
-2.400402 5.554029 -0.338278 89
-1.573968 5.458865 -0.924639 70
-1.784756 5.524068 -0.179394 101
-2.183043 5.528395 -0.619475 101
-1.578684 5.478664 -0.627446 74
-1.786927 5.533948 -0.090339 101
-2.185354 5.536957 -0.528116 101
-1.587405 5.512393 -0.364925 99
-2.188103 5.546638 -0.253036 99
-2.628616 5.598560 -0.620610 101
-1.587846 5.517395 -0.276780 100
-1.962974 5.482904 -0.782221 100
-2.197144 5.572284 -0.162079 101
-2.609406 5.560063 -0.521150 100
-1.388767 5.476429 -0.545007 97
-1.593186 5.539432 -0.012072 98
-1.967386 5.498122 -0.439075 101
-1.390723 5.487994 -0.458494 77
-1.991363 5.568066 -0.353395 88
-2.389306 5.543622 -0.725164 62
-1.773617 5.514798 -0.357359 101
-2.385912 5.543396 -0.244503 101
-1.775388 5.523473 -0.268531 101
-2.162236 5.499918 -0.741328 83
-1.576197 5.501136 -0.540935 100
-1.784928 5.556341 -0.001019 101
-2.182647 5.554562 -0.437216 92
-1.579574 5.516404 -0.453614 89
-1.796019 5.594080 0.089220 101
-2.180995 5.553087 -0.345044 100
-1.373947 5.448567 -1.025830 100
-1.586024 5.542431 -0.189227 72
-1.966594 5.519173 -0.622018 89
-2.597359 5.556118 -0.425651 83
-1.378315 5.469749 -0.631713 101
-1.580211 5.525611 -0.100316 99
-1.968644 5.527850 -0.531959 101
-2.588746 5.540108 -0.330111 80
-1.388892 5.515615 -0.372798 73
-1.752657 5.468443 -0.843055 101
-1.975187 5.549160 -0.261292 100
-2.377785 5.539814 -0.616610 71
-1.756625 5.483977 -0.622517 100
-1.972691 5.545083 -0.170566 89
-2.375598 5.537274 -0.522912 101
-1.756987 5.497368 -0.534373 101
-1.976433 5.567020 -0.080426 77
-2.374892 5.545541 -0.430311 101
-1.761999 5.516229 -0.446595 101
-1.985045 5.594245 0.010360 101
-2.379428 5.558703 -0.338055 83
-1.554903 5.464325 -0.924639 78
-1.761815 5.518838 -0.179023 101
-2.162284 5.532276 -0.619061 101
-1.563901 5.499439 -0.629196 66
-1.765167 5.532532 -0.090215 101
-2.163114 5.537129 -0.527409 100
-1.568154 5.517900 -0.364925 94
-2.170182 5.557965 -0.253206 100
-2.587231 5.560791 -0.615418 101
-1.568577 5.522903 -0.276780 100
-1.943824 5.489723 -0.782221 101
-2.176226 5.576195 -0.161971 101
-2.571494 5.529384 -0.517430 100
-1.369642 5.481243 -0.545007 100
-1.577116 5.556504 -0.012097 21
-1.945520 5.497435 -0.438476 101
-1.367694 5.477342 -0.457203 77
-1.963926 5.552397 -0.351963 100
-2.365263 5.540971 -0.723733 51
-1.751938 5.513345 -0.356866 101
-2.371249 5.562721 -0.244988 101
-1.754888 5.525828 -0.268346 101
-2.147343 5.518529 -0.742821 81
-1.556985 5.506604 -0.540935 100
-1.765522 5.562538 -0.001019 101
-2.157460 5.547275 -0.436047 92
-1.553803 5.498861 -0.451722 86
-1.768016 5.573629 0.088795 101
-2.161598 5.560667 -0.345044 100
-2.562678 5.529761 -0.710573 101
-1.347329 5.422780 -1.020083 24
-1.563408 5.536392 -0.188833 76
-1.939384 5.503495 -0.619484 87
-2.165579 5.573668 -0.069927 16
-2.574594 5.557909 -0.425098 87
-1.360172 5.478385 -0.632158 101
-1.563086 5.538791 -0.100456 100
-1.945366 5.523416 -0.530876 101
-2.571069 5.552735 -0.330327 84
-1.733558 5.474527 -0.843055 101
-1.953151 5.548482 -0.260938 100
-2.358433 5.548079 -0.616610 65
-1.738671 5.493867 -0.622947 100
-1.948016 5.536848 -0.170103 84
-2.356255 5.545532 -0.522912 101
-1.731820 5.484468 -0.532529 101
-1.946418 5.543684 -0.079991 85
-2.346202 5.531746 -0.428603 101
-1.739150 5.510930 -0.445672 101
-1.965524 5.601134 0.010360 101
-2.352235 5.548582 -0.336939 100
-1.530490 5.450713 -0.921426 76
-1.742547 5.524952 -0.179023 101
-2.135790 5.521235 -0.616988 101
-1.539320 5.485725 -0.627008 76
-1.742233 5.527217 -0.090028 101
-2.138021 5.529783 -0.525995 101
-1.543478 5.504127 -0.363655 92
-2.143550 5.546874 -0.252358 96
-2.551126 5.533651 -0.611425 101
-1.547107 5.520658 -0.276395 100
-1.920692 5.485259 -0.780624 100
-2.149518 5.565118 -0.161430 101
-2.548815 5.531099 -0.516754 100
-1.347608 5.474401 -0.543854 100
-1.921011 5.489147 -0.437276 101
-1.347565 5.478223 -0.456880 63
-1.945802 5.563005 -0.352202 96
-2.339673 5.534583 -0.721825 59
-1.732600 5.519453 -0.356866 101
-2.337745 5.537860 -0.243531 101
-1.730710 5.516699 -0.267607 101
-2.120841 5.507508 -0.740332 83
-1.533369 5.496692 -0.539429 100
-1.740005 5.549616 -0.001015 101
-2.129380 5.532474 -0.434293 86
-1.531270 5.492760 -0.450776 87
-1.744845 5.568354 0.088613 101
-2.132021 5.542134 -0.343427 100
-2.558165 5.571222 -0.714742 101
-1.541799 5.534149 -0.188571 76
-1.918726 5.506519 -0.619062 90
-2.143111 5.573776 -0.069833 63
-2.553385 5.563295 -0.424821 96
-1.339014 5.475411 -0.631268 101
-1.539312 5.528841 -0.100177 91
-1.919384 5.511411 -0.529070 101
-2.551532 5.561740 -0.330327 100
-1.711926 5.473038 -0.841893 101
-1.927053 5.536448 -0.260051 100
-2.329638 5.534336 -0.614168 77
-1.715764 5.488565 -0.621657 100
-1.927201 5.539894 -0.169987 92
-2.330540 5.539099 -0.521528 101
-1.710293 5.482875 -0.531791 101
-1.923120 5.539110 -0.079827 87
-2.325333 5.536223 -0.428319 101
-1.721090 5.520774 -0.445980 101
-1.939404 5.589066 0.010325 100
-2.331306 5.553076 -0.336715 100
-1.512508 5.459826 -0.922069 74
-1.719683 5.519550 -0.178653 101
-2.117926 5.532372 -0.617402 101
-1.521222 5.494897 -0.627446 75
-1.721740 5.529447 -0.089966 101
-2.120129 5.540934 -0.526348 100
-1.523192 5.505634 -0.363401 89
-2.122747 5.550590 -0.252188 100
-2.541717 5.564243 -0.613821 101
-1.523568 5.510622 -0.275625 100
-1.893751 5.469453 -0.777429 101
-2.121512 5.550178 -0.160781 101
-2.529492 5.539962 -0.516754 100
-1.324738 5.463594 -0.542318 100
-1.904447 5.503358 -0.437876 101
-1.923761 5.562216 -0.351725 100
-2.320339 5.542716 -0.721825 61
-1.708593 5.510214 -0.355881 101
-2.315317 5.538612 -0.243207 101
-1.711442 5.522707 -0.267607 101
-2.097363 5.503751 -0.738838 83
-2.318630 5.549176 -0.151183 7
-1.514173 5.502011 -0.539429 100
-1.719439 5.551835 -0.001014 101
-2.111475 5.543601 -0.434585 88
-1.512088 5.498072 -0.450776 100
-1.730127 5.589693 0.088855 101
-2.112663 5.549542 -0.343427 100
-2.523894 5.547571 -0.710573 101
-1.522472 5.539497 -0.188571 75
-1.900788 5.516943 -0.619484 85
-2.107995 5.540102 -0.069319 90
-2.533950 5.572174 -0.424821 98
-1.322686 5.491645 -0.632604 101
-1.906619 5.536910 -0.530876 101
-2.530449 5.566977 -0.330111 99
-1.692811 5.478980 -0.841893 101
-1.910316 5.550699 -0.260406 100
-2.310306 5.542435 -0.614168 71
-1.695421 5.490722 -0.621228 100
-1.902650 5.531464 -0.169523 91
-2.314256 5.554557 -0.522220 101
-1.692317 5.492618 -0.532160 101
-1.902474 5.542006 -0.079773 87
-2.305994 5.544307 -0.428319 101
-1.699461 5.519125 -0.445365 101
-1.913392 5.576884 0.010290 100
-2.305776 5.546429 -0.335822 100
-1.491359 5.457456 -0.920784 87
-1.700406 5.525519 -0.178653 101
-2.095783 5.532290 -0.616573 101
-1.499937 5.492502 -0.626571 76
-1.703604 5.539246 -0.090028 101
-2.100775 5.548301 -0.526348 101
-1.502913 5.507066 -0.363147 100
-2.103359 5.557966 -0.252188 100
-2.515714 5.558578 -0.612223 101
-1.504323 5.515906 -0.275625 100
-1.872079 5.468528 -0.776364 101
-2.106370 5.568769 -0.161106 101
-2.513424 5.556021 -0.517430 100
-1.301035 5.448822 -0.540398 95
-1.876186 5.483554 -0.435776 101
-1.901750 5.561341 -0.351248 100
-2.297935 5.543444 -0.720871 57
-1.688179 5.512327 -0.355635 101
-2.295969 5.546660 -0.243207 101
-1.687477 5.513365 -0.266867 101
-2.079540 5.514753 -0.739336 75
-2.317590 5.601575 -0.152389 101
-1.493915 5.503419 -0.539052 100
-1.695369 5.542503 -0.001012 101
-2.087891 5.539739 -0.433709 89
-1.491843 5.499468 -0.450461 100
-1.703590 5.572749 0.088491 101
-2.090463 5.549409 -0.342965 100
-2.497984 5.541858 -0.708720 101
-1.501034 5.537060 -0.188308 67
-1.872541 5.497189 -0.616528 77
-2.084416 5.536197 -0.069178 75
-2.494814 5.537327 -0.421497 98
-1.298922 5.476890 -0.630378 101
-1.877009 5.513363 -0.527986 101
-2.504441 5.561208 -0.329249 98
-1.669056 5.469715 -0.839569 100
-1.887068 5.545984 -0.259874 97
-2.284872 5.535752 -0.612540 77
-1.678565 5.504214 -0.622087 100
-1.884617 5.541857 -0.169639 91
-2.287254 5.544182 -0.520491 101
-1.669626 5.487070 -0.531054 101
-1.875376 5.525898 -0.079446 98
-2.275962 5.526510 -0.426326 100
-1.680167 5.525030 -0.445365 101
-1.891326 5.575960 0.010276 100
-2.286383 5.554451 -0.335822 100
-1.472293 5.462631 -0.920784 84
-1.678776 5.523772 -0.178406 101
-2.075056 5.535850 -0.616158 101
-1.476624 5.482347 -0.624821 77
-1.680775 5.533677 -0.089842 101
-2.074409 5.536943 -0.524581 101
-1.482659 5.508420 -0.362893 100
-1.694366 5.581779 0.178223 38
-2.082559 5.561526 -0.252018 86
-2.493054 5.560055 -0.611425 101
-1.480935 5.505683 -0.274854 100
-1.849193 5.463756 -0.774766 101
-2.081339 5.561098 -0.160673 101
-2.492411 5.561111 -0.517092 100
-1.857071 5.490057 -0.435776 101
-2.477331 5.529941 -0.233841 0
-1.882375 5.567929 -0.351248 100
-2.278620 5.551412 -0.720871 56
-1.665542 5.506697 -0.354896 101
