# This PCD file was generated using the MATLAB® pcwrite function
# from Computer Vision Toolbox®.
# .PCD v.7 - Point Cloud Data file format
VERSION .7
FIELDS x y z intensity
SIZE 4 4 4 1
TYPE F F F U
COUNT 1 1 1 1
WIDTH 1043
HEIGHT 1
VIEWPOINT 0 0 0 1 0 0 0
POINTS 1043
DATA ascii
-7.412566 13.407923 -0.326270 20
-7.358028 13.419689 -0.325929 23
-7.258573 13.343271 -0.556984 1
-7.316871 13.455832 -0.326184 20
-7.221441 13.386117 -0.557717 42
-7.264163 13.470731 -0.325929 20
-7.161344 13.386640 -0.556691 43
-7.207525 13.478449 -0.325503 20
-7.100049 13.378535 -0.555372 38
-7.168411 13.512874 -0.325759 22
-7.053970 13.355100 -0.786257 8
-7.051444 13.399700 -0.555225 38
-7.117476 13.530735 -0.325588 25
-7.014746 13.393784 -0.787089 39
-7.138793 13.636090 -0.091337 47
-7.005233 13.423917 -0.555225 40
-7.072728 13.558690 -0.325673 23
-6.951382 13.386282 -0.785217 41
-7.094836 13.668027 -0.091385 47
-6.971190 13.473140 -0.556252 46
-7.019845 13.572639 -0.325418 27
-6.906441 13.414017 -0.785425 28
-7.048913 13.696265 -0.091409 59
-6.918644 13.486721 -0.555812 43
-6.966950 13.586385 -0.325162 28
-7.398811 13.420768 -0.296933 0
-6.817413 13.349926 -1.011397 44
-6.859551 13.438055 -0.785425 26
-6.995517 13.710145 -0.091337 48
-6.876351 13.521790 -0.556252 45
-6.924239 13.621662 -0.325418 29
-7.308935 13.362522 -0.529210 1
-7.361512 13.464058 -0.297321 25
-6.765364 13.362960 -1.010589 38
-6.812602 13.461918 -0.785425 33
-6.936784 13.713064 -0.091195 50
-6.829109 13.545710 -0.556252 46
-6.880248 13.652891 -0.325588 26
-7.256956 13.372632 -0.528654 31
-7.305381 13.467303 -0.296856 31
-6.726386 13.396021 -1.011397 43
-6.767923 13.484435 -0.785425 35
-6.887684 13.728842 -0.091148 63
-6.924548 13.837361 -1.522620 3
-6.851601 13.697382 -1.269923 8
-6.782365 13.564706 -0.556105 50
-6.829572 13.664901 -0.325333 29
-7.200661 13.380335 -0.527960 36
-7.262054 13.499799 -0.297011 28
-6.676004 13.412285 -1.010859 45
-6.719048 13.504394 -0.785217 41
-6.848679 13.770681 -0.091266 70
-6.883595 13.846666 0.145743 12
-6.839342 13.786418 -1.514394 12
-6.619890 13.349636 -1.235548 17
-6.735333 13.588120 -0.556105 44
-6.780456 13.684875 -0.325248 28
-7.148265 13.394808 -0.527543 29
-7.203593 13.503895 -0.296546 31
-6.622082 13.421191 -1.009781 53
-6.673634 13.531348 -0.785425 45
-6.789956 13.772978 -0.091124 74
-6.844059 13.888550 0.145931 31
-6.785907 13.799491 -1.513219 9
-6.756134 13.744721 -1.269923 9
-6.687861 13.611548 -0.556105 44
-6.736171 13.715639 -0.325418 28
-7.079515 13.356819 -0.757860 9
-7.108944 13.433811 -0.528099 32
-7.160152 13.536028 -0.296701 32
-6.583960 13.462151 -1.011128 57
-6.629869 13.561738 -0.785841 45
-6.754131 13.821753 -0.091290 64
-6.785004 13.890791 0.145705 34
-6.742929 13.833829 -1.514394 24
-6.704623 13.761054 -1.269262 12
-6.643807 13.641997 -0.556398 52
-6.691754 13.746261 -0.325588 26
-7.036564 13.388523 -0.758260 49
-7.056464 13.447910 -0.527682 35
-7.118449 13.571555 -0.296933 31
-6.540417 13.492229 -1.011666 57
-6.577260 13.574016 -0.785217 52
-6.698853 13.830852 -0.091195 57
-6.738192 13.918004 0.145743 33
-6.668543 13.803555 -1.508518 30
-7.128934 13.641413 -0.061787 4
-6.659922 13.791597 -1.269923 13
-6.594308 13.661555 -0.556252 48
-6.638403 13.758785 -0.325333 28
-6.974864 13.384741 -0.756658 44
-7.005788 13.465367 -0.527404 36
-7.063651 13.582128 -0.296623 39
-6.493280 13.514978 -1.011666 62
-6.531567 13.600492 -0.785425 50
-6.650534 13.854151 -0.091195 66
-6.689568 13.941440 0.145743 37
-6.604847 13.794435 -1.504993 8
-7.079432 13.662663 -0.061771 41
-6.611740 13.814761 -1.269923 14
-6.548305 13.688096 -0.556398 48
-6.585160 13.771049 -0.325077 24
-6.913430 13.380612 -0.755056 33
-6.960576 13.493293 -0.527543 35
-7.018031 13.610256 -0.296701 38
-6.447780 13.541164 -1.011936 57
-6.484053 13.623209 -0.785425 53
-6.598697 13.870057 -0.091148 63
-6.642580 13.968318 0.145780 43
-6.577134 13.860562 -1.509693 15
-7.046320 13.715755 -0.061900 39
-6.577144 13.866570 -1.272568 9
-6.498773 13.707258 -0.556252 52
-6.543900 13.808408 -0.325418 28
-6.855542 13.377405 -0.985233 36
-6.864860 13.401107 -0.754855 43
-6.913469 13.517489 -0.527543 37
-6.972322 13.638220 -0.296778 34
-6.398779 13.559976 -1.011666 60
-6.439862 13.652988 -0.785841 51
-6.546810 13.885779 -0.091100 64
-6.588632 13.980581 0.145667 37
-6.530302 13.887088 -1.510085 11
-6.991037 13.726063 -0.061835 37
-6.450756 13.729921 -0.556252 46
-6.490416 13.820374 -0.325162 26
-7.330603 13.351775 -0.499968 0
-7.354277 13.400238 -0.266812 0
-6.812239 13.408463 -0.985756 29
-6.828698 13.446459 -0.756057 46
-6.866796 13.536776 -0.527404 36
-6.919823 13.646998 -0.296468 35
-6.392674 13.664263 -1.017860 20
-6.392859 13.670650 -0.785633 53
-6.497340 13.900167 -0.091053 68
-6.543928 14.005977 0.145705 36
-6.934660 13.727749 -0.061739 35
-6.406878 13.754861 -0.556398 48
-6.447926 13.849072 -0.325333 26
-7.286286 13.376011 -0.499968 26
-7.317450 13.438601 -0.267092 22
-6.760553 13.416721 -0.984710 27
-6.787665 13.476166 -0.756458 47
-6.823094 13.567805 -0.527682 35
-6.872144 13.671070 -0.296468 30
-6.396974 13.798738 -1.026207 14
-6.343422 13.689258 -0.785425 50
-6.450461 13.926391 -0.091076 61
-6.990893 13.936503 -1.504049 2
-6.722873 13.407826 -1.214687 43
-6.883117 13.744719 -0.061707 39
-6.360501 13.780770 -0.556545 52
-6.396194 13.864233 -0.325162 26
-7.222449 13.369706 -0.498787 25
-7.279997 13.481658 -0.267441 43
-6.713679 13.440238 -0.984710 27
-6.744152 13.506926 -0.756858 54
-6.773881 13.587976 -0.527543 37
-6.822580 13.691404 -0.296391 34
-6.297270 13.714945 -0.785633 47
-6.406830 13.959722 -0.091148 71
-6.881966 13.839591 -1.490991 15
-6.633486 13.345504 -1.206938 48
-6.840513 13.779369 -0.061755 39
-6.310798 13.799207 -0.556398 50
-6.347873 13.886423 -0.325162 27
-7.177744 13.398296 -0.498918 22
-7.233024 13.506917 -0.267441 40
-6.659780 13.449213 -0.983663 31
-6.702433 13.541050 -0.757459 48
-6.725241 13.603197 -0.527265 38
-6.777140 13.713954 -0.296391 31
-6.251755 13.735752 -0.785633 49
-6.367128 13.995454 -0.091242 61
-7.128359 13.364140 -0.730184 1
-6.821947 13.833769 -1.487918 16
-6.605059 13.399612 -1.209844 37
-6.793015 13.798389 -0.061739 41
-6.845068 13.910001 0.175884 17
-6.266654 13.823699 -0.556545 49
-6.306741 13.918325 -0.325418 30
-7.135150 13.425555 -0.499049 22
-7.191947 13.537892 -0.267580 43
-6.618663 13.478390 -0.984186 30
-6.653971 13.556029 -0.757059 51
-6.679475 13.630179 -0.527404 37
-6.732747 13.744710 -0.296546 34
-6.208696 13.768415 -0.786257 39
-7.057382 13.343028 -0.727680 36
-6.764874 13.839612 -1.485997 23
-6.729771 13.773644 -1.241486 15
-6.748316 13.829206 -0.061771 39
-6.794718 13.930215 0.175838 32
-6.218361 13.845490 -0.556545 55
-6.251567 13.925662 -0.325077 28
-7.088243 13.450379 -0.499049 26
-7.142783 13.559376 -0.267510 38
-6.571574 13.501410 -0.984186 31
-6.604864 13.575581 -0.756858 55
-6.630073 13.649835 -0.527265 44
-6.679465 13.757346 -0.296313 34
-6.162232 13.793649 -0.786465 41
-7.014506 13.374641 -0.728065 38
-6.697474 13.823705 -1.481773 27
-6.676499 13.786258 -1.240518 18
-6.694880 13.841825 -0.061723 37
-6.744429 13.950190 0.175793 37
-6.170126 13.867053 -0.556545 44
-6.204691 13.950988 -0.325162 26
-7.035850 13.464329 -0.498656 29
-7.095579 13.584137 -0.267510 31
-6.526323 13.527774 -0.984448 30
-6.557634 13.598458 -0.756858 46
-6.582386 13.672894 -0.527265 41
-6.629668 13.776974 -0.296236 34
-6.122129 13.833340 -0.787505 22
-7.056141 13.563454 -0.972625 1
-6.975151 13.413223 -0.728836 36
-6.633669 13.814696 -1.478316 20
-6.633511 13.820262 -1.241486 14
-6.648252 13.868718 -0.061739 39
-6.695692 13.973647 0.175793 40
-6.123295 13.892163 -0.556691 52
-6.162405 13.987200 -0.325503 26
-6.996165 13.503005 -0.499181 33
-7.040761 13.594617 -0.267231 36
-6.477341 13.546872 -0.984186 31
-6.513572 13.628474 -0.757259 51
-6.538062 13.703004 -0.527543 40
-6.579815 13.796422 -0.296158 30
-6.884315 13.346752 -0.955356 26
-6.926456 13.433939 -0.728643 36
-6.600804 13.870125 -1.481773 15
-7.044027 13.667553 -0.032203 20
-6.593792 13.861335 -1.243101 13
-6.592935 13.877388 -0.061675 35
-6.646874 13.996935 0.175793 44
-6.074765 13.913453 -0.556691 44
-6.097548 13.971972 -0.324651 3
-6.945334 13.520232 -0.498918 34
-6.987783 13.608438 -0.267022 37
-6.428305 13.565792 -0.983925 31
-6.464250 13.647517 -0.757059 58
-6.486800 13.718501 -0.527265 45
-6.528217 13.812066 -0.296003 34
-6.832217 13.360046 -0.954594 31
-6.881314 13.461605 -0.728836 40
-6.552311 13.893099 -1.481773 16
-6.990779 13.681392 -0.032178 17
-6.551187 13.914831 -0.061739 37
-6.594476 14.012856 0.175702 43
-6.027644 13.938287 -0.556838 43
-6.901604 13.551580 -0.499181 36
-6.945548 13.643508 -0.267231 36
-6.387554 13.602668 -0.984971 31
-6.416416 13.670072 -0.757059 46
-6.442266 13.748301 -0.527543 40
-6.481660 13.838391 -0.296081 34
-7.328627 13.372162 -0.471218 26
-6.776515 13.366012 -0.953325 30
-6.825252 13.467724 -0.727873 40
-6.498718 13.905065 -1.480620 7
-6.935749 13.691438 -0.032145 15
-6.502575 13.937614 -0.061739 39
-5.978954 13.959243 -0.556838 37
-6.854258 13.575589 -0.499181 36
-6.892475 13.656958 -0.267022 38
-6.345085 13.635738 -0.985756 21
-6.370344 13.696009 -0.757259 51
-6.395920 13.774330 -0.527682 41
-6.441734 13.879070 -0.296468 29
-7.264721 13.366048 -0.470106 24
-7.331903 13.495031 -0.238584 10
-6.738781 13.407419 -0.954594 32
-6.788961 13.512887 -0.729028 43
-6.896891 13.733437 -0.032187 19
-6.452206 13.956597 -0.061723 39
-5.936435 13.994748 -0.557424 32
-6.941756 13.857424 -1.465078 3
-6.695171 13.370764 -1.182106 33
-6.805039 13.595858 -0.499049 34
-6.851919 13.695240 -0.267301 34
-6.355944 13.784668 -0.994912 6
-6.327514 13.729046 -0.757860 48
-6.347836 13.796556 -0.527682 41
-6.396613 13.908728 -0.296623 36
-7.218029 13.391320 -0.470106 24
-7.284747 13.520545 -0.238584 40
-6.690140 13.427296 -0.954340 32
-6.736375 13.525790 -0.728450 46
-6.857776 13.775355 -0.032229 21
-6.401680 13.975446 -0.061707 46
-6.868415 13.831702 -1.459808 9
-6.648317 13.394122 -1.182106 43
-6.755606 13.616025 -0.498918 40
-6.800347 13.711993 -0.267161 38
-6.277694 13.747507 -0.757659 51
-6.302956 13.825904 -0.527960 38
-6.346365 13.927332 -0.296546 35
-7.173125 13.419960 -0.470230 24
-7.216775 13.507088 -0.237900 33
-6.648533 13.461305 -0.955102 35
-6.683814 13.538474 -0.727873 36
-6.809649 13.799210 -0.032229 21
-6.354510 14.001348 -0.061723 36
-7.101605 13.334678 -0.699254 34
-6.804264 13.823437 -1.456420 6
-6.589200 13.392201 -1.179900 37
-6.711565 13.646698 -0.499181 36
-6.754206 13.739237 -0.267231 33
-6.224727 13.758417 -0.757059 58
-6.252134 13.835801 -0.527543 40
-6.296853 13.941011 -0.296391 34
-7.128584 13.443673 -0.470230 21
-7.160706 13.509743 -0.237528 23
-6.605613 13.486863 -0.955356 34
-6.644153 13.571329 -0.728450 41
-6.763852 13.821715 -0.032229 21
-6.817186 13.936638 0.205806 5
-7.059213 13.361687 -0.699439 30
-6.760133 13.849504 -1.456797 17
-6.579724 13.485654 -1.186204 17
-6.661017 13.658099 -0.498787 37
-6.701598 13.747179 -0.266952 35
-6.170895 13.760756 -0.756057 58
-6.202101 13.853921 -0.527404 38
-6.249744 13.966576 -0.296468 35
-7.070434 13.447250 -0.469489 21
-6.770821 13.941216 -1.705567 13
-7.122817 13.552352 -0.237838 26
-6.558528 13.509823 -0.955356 37
-6.595053 13.590816 -0.728258 41
-6.712157 13.838002 -0.032212 23
-6.758137 13.938703 0.205488 21
-7.010877 13.382602 -0.699254 30
-6.687701 13.822717 -1.451527 14
-6.657860 13.766883 -1.208901 15
-6.617061 13.688331 -0.499049 39
-6.646918 13.755936 -0.266673 36
-6.132913 13.803960 -0.757259 60
-6.155324 13.879141 -0.527543 38
-6.199333 13.984650 -0.296391 30
-7.032693 13.489575 -0.470106 23
-6.670381 13.857288 -1.692441 20
-7.079164 13.584227 -0.237963 33
-6.509599 13.529037 -0.955102 37
-6.540645 13.599353 -0.727487 42
-6.663813 13.861348 -0.032212 22
-6.707708 13.958603 0.205435 25
-6.982669 13.437235 -0.934158 3
-6.964120 13.406993 -0.699254 34
-6.632523 13.831614 -1.450021 7
-6.620105 13.811614 -1.210792 11
-6.560602 13.693318 -0.498393 33
-6.610952 13.804304 -0.267161 37
-6.083081 13.821628 -0.757059 43
-6.110056 13.907862 -0.527821 37
-6.150479 14.006205 -0.296391 12
-6.976383 13.496284 -0.469489 23
-6.620257 13.876900 -1.692003 17
-7.029867 13.605302 -0.237900 34
-6.467489 13.562487 -0.955864 36
-6.498292 13.632920 -0.728065 42
-6.618828 13.891747 -0.032229 22
-6.653783 13.971099 0.205275 26
-6.871722 13.337310 -0.925538 36
-6.904472 13.406354 -0.697960 34
-6.587619 13.861876 -1.450774 5
-7.059760 13.713481 -0.002692 2
-6.590674 13.874259 -1.214260 10
-6.523053 13.737804 -0.499181 37
-6.557581 13.816457 -0.266952 37
-6.063865 13.928063 -0.527821 39
-6.935229 13.526464 -0.469736 20
-6.589509 13.931122 -1.695941 10
-6.984717 13.628536 -0.237900 33
-6.417379 13.573024 -0.955102 36
-6.458202 13.665216 -0.728643 43
-6.569355 13.906363 -0.032212 24
-6.607478 13.993058 0.205275 23
-6.831188 13.367084 -0.926030 31
-6.863725 13.436235 -0.698329 38
-6.550233 13.901594 -1.452656 8
-7.019832 13.747438 -0.002694 62
-6.479320 13.762903 -0.499312 38
-6.520414 13.856139 -0.267301 40
-7.356178 13.367154 -0.442174 26
-6.018376 13.956487 -0.528099 35
-6.891594 13.557717 -0.469983 22
-6.935290 13.649268 -0.237838 33
-6.378429 13.613416 -0.956372 36
-6.410462 13.687676 -0.728643 40
-6.522469 13.932833 -0.032220 24
-6.784487 13.390848 -0.926030 36
-6.818587 13.463677 -0.698514 37
-6.969995 13.768290 -0.002693 44
-6.426168 13.774568 -0.498918 31
-6.465247 13.864317 -0.267022 40
-7.307558 13.389241 -0.442058 29
-5.971192 13.981086 -0.528238 33
-6.721742 13.333142 -1.151550 20
-6.835231 13.563839 -0.469365 24
-6.887603 13.673394 -0.237838 34
-6.329190 13.631977 -0.956118 32
-6.357599 13.699097 -0.728065 43
-6.477160 13.962772 -0.032237 21
-6.735911 13.410881 -0.925784 37
-6.771549 13.487396 -0.698514 38
-6.923686 13.796110 -0.002694 42
-6.378047 13.796915 -0.498918 39
-6.415134 13.883170 -0.266952 33
-7.251260 13.397086 -0.441479 33
-6.895018 13.790396 -1.427575 9
-7.276998 13.466133 -0.208390 1
-6.687723 13.381455 -1.153703 28
-6.787875 13.587600 -0.469365 24
-6.843386 13.704519 -0.237963 29
-6.309617 13.721263 -0.728065 38
-6.424860 13.978111 -0.032220 24
-6.688678 13.434501 -0.925784 33
-6.723995 13.511167 -0.698514 38
-6.873209 13.816859 -0.002693 38
-6.335906 13.833909 -0.499443 37
-6.369306 13.913053 -0.267092 38
-7.177354 13.368167 -0.673084 2
-6.901339 13.902896 -1.677959 18
-7.207495 13.429758 -0.441710 33
-6.832689 13.785830 -1.424625 12
-7.250729 13.530231 -0.208989 26
-6.639202 13.401145 -1.153396 28
-6.742178 13.614794 -0.469489 23
-6.791958 13.721155 -0.237838 35
-6.264995 13.750476 -0.728450 38
-6.376029 14.000453 -0.032220 14
-6.645276 13.464927 -0.926276 36
-6.675024 13.530972 -0.698329 37
-6.821400 13.833592 -0.002692 40
-6.289230 13.859581 -0.499574 36
-6.324005 13.942485 -0.267231 41
-7.143793 13.417830 -0.674325 33
-6.828186 13.876946 -1.671940 16
-7.154937 13.444246 -0.441363 36
-6.772232 13.784573 -1.422043 8
-7.194071 13.537799 -0.208717 21
-6.590624 13.420658 -1.153088 23
-6.691089 13.631067 -0.469242 21
-6.745782 13.748370 -0.237900 31
-6.215315 13.768620 -0.728258 41
-6.596480 13.484455 -0.926030 38
-6.633017 13.564959 -0.698884 39
-6.767800 13.846538 -0.002690 40
-6.239173 13.877804 -0.499443 39
-6.270380 13.953531 -0.267022 35
-7.070793 13.393211 -0.671843 31
-6.793651 13.929292 -1.675380 16
-7.107965 13.469140 -0.441363 31
-6.724036 13.808146 -1.422043 22
-7.131819 13.534540 -0.208281 17
-6.543715 13.443593 -1.153088 25
-6.645208 13.657940 -0.469365 21
-6.696007 13.768234 -0.237838 30
-6.177036 13.812099 -0.729413 39
-6.549472 13.507349 -0.926030 37
-6.583999 13.584377 -0.698699 38
-6.728278 13.888012 -0.002693 34
-6.770489 13.981134 0.235895 12
-6.190854 13.899426 -0.499443 37
-6.220185 13.971601 -0.266952 39
-7.022329 13.414175 -0.671666 30
-6.694996 13.848990 -1.662912 16
-7.059249 13.490224 -0.441247 30
-6.641171 13.759793 -1.414668 10
-7.088235 13.566442 -0.208390 18
-6.597259 13.674688 -1.170927 7
-6.594019 13.673850 -0.469118 26
-6.642696 13.780715 -0.237652 38
-6.127166 13.829925 -0.729221 40
-6.973605 13.385427 -0.901981 7
-6.505741 13.537326 -0.926523 37
-6.534811 13.603676 -0.698514 36
-6.667639 13.886173 -0.002689 45
-6.726836 14.015500 0.236077 29
-6.142298 13.920952 -0.499443 37
-6.185902 14.026163 -0.267580 19
-6.986508 13.459887 -0.672730 28
-6.648332 13.875862 -1.663342 19
-7.013958 13.518332 -0.441363 31
-6.593785 13.778148 -1.414299 9
-7.050570 13.604077 -0.208608 19
-6.608668 13.815215 -1.181077 8
-6.548638 13.695642 -0.469118 22
-6.600410 13.809885 -0.237776 35
-6.076452 13.839191 -0.728643 39
-6.918180 13.387196 -0.900549 30
-6.460814 13.558825 -0.926523 37
-6.487945 13.621664 -0.698329 40
-6.631871 13.929876 -0.002693 47
-6.678604 14.034119 0.236017 24
-6.100906 13.952233 -0.499837 38
-6.940005 13.479427 -0.672552 30
-6.612520 13.919385 -1.665921 12
-6.965432 13.534406 -0.441131 28
-6.554119 13.819105 -1.416143 8
-7.006631 13.635754 -0.208717 22
-6.582573 13.885066 -1.185076 6
-6.505913 13.729263 -0.469489 22
-6.559022 13.847294 -0.238025 32
-7.396097 13.359760 -0.413205 17
-6.864231 13.396995 -0.899595 28
-6.408511 13.570379 -0.925784 37
-6.445680 13.654971 -0.698884 41
-6.580028 13.945595 -0.002691 42
-6.046097 13.958646 -0.499312 42
-6.884152 13.485609 -0.671666 31
-6.925766 13.572704 -0.441594 28
-6.551586 13.939224 -1.426100 8
-6.953544 13.649437 -0.208553 14
-7.006360 13.758772 0.026948 22
-6.459649 13.755508 -0.469612 21
-6.500449 13.848382 -0.237652 36
-7.341720 13.371476 -0.412772 28
-6.817425 13.420874 -0.899595 32
-6.359411 13.589050 -0.925538 37
-6.399669 13.681006 -0.699069 39
-6.533003 13.972102 -0.002692 36
-6.002064 13.990688 -0.499706 46
-6.840646 13.516688 -0.672021 31
-6.865712 13.571822 -0.440783 28
-6.913069 13.687906 -0.208771 23
-6.954685 13.776003 0.026934 30
-6.416654 13.788848 -0.469983 23
-6.452070 13.870988 -0.237652 30
-7.302649 13.411068 -0.413205 30
-6.719098 13.336921 -1.122881 15
-6.777719 13.458854 -0.900549 33
-6.320335 13.629276 -0.926769 34
-6.351874 13.703262 -0.699069 41
-6.490918 14.009339 -0.002695 29
-6.969362 13.885398 -1.408445 2
-6.793422 13.540483 -0.672021 35
-6.821880 13.602854 -0.441015 27
-6.856359 13.694040 -0.208499 19
-6.911966 13.810906 0.026955 33
-6.366824 13.807525 -0.469859 24
-6.405276 13.897062 -0.237714 33
-7.214232 13.354281 -0.644122 1
-7.250034 13.425954 -0.412881 31
-6.667074 13.349628 -1.121982 15
-6.734159 13.489629 -0.901026 35
-6.274207 13.654966 -0.927015 20
-6.310466 13.739970 -0.699809 40
-6.436733 14.021114 -0.002693 34
-6.912425 13.887625 -1.646890 20
-6.870854 13.809930 -1.398333 9
-6.742230 13.557121 -0.671666 34
-6.774003 13.626760 -0.441015 25
-6.817407 13.735803 -0.208771 19
-6.869048 13.845699 0.026976 29
-6.315265 13.822392 -0.469612 21
-6.353405 13.912060 -0.237590 35
-7.156250 13.358246 -0.643105 28
-7.201237 13.447655 -0.412772 30
-6.629283 13.390693 -1.123481 16
-6.690571 13.520210 -0.901504 32
-6.260811 13.758277 -0.699624 43
-6.848066 13.879565 -1.643089 50
-7.245139 13.579000 -0.179985 30
-6.803225 13.794529 -1.394361 12
-6.691332 13.573405 -0.671312 35
-6.726396 13.650322 -0.441015 28
-6.764754 13.743980 -0.208553 23
-6.816033 13.854045 0.026948 27
-6.272692 13.850542 -0.469859 23
-6.310534 13.940339 -0.237714 30
-7.117540 13.392490 -0.643614 28
-7.150975 13.460867 -0.412448 32
-6.584842 13.412602 -1.123481 16
-6.631628 13.513646 -0.899595 33
-6.205295 13.757110 -0.698514 35
-6.812491 13.923635 -1.645623 54
-7.188843 13.581740 -0.179705 26
-6.745192 13.791964 -1.391833 6
-6.651549 13.606290 -0.671843 33
-6.675826 13.661776 -0.440667 26
-6.714919 13.763947 -0.208499 18
-6.765838 13.874178 0.026941 33
-6.216108 13.854121 -0.469242 25
-6.265118 13.969577 -0.237838 33
-7.037244 13.353597 -0.640561 19
-7.104002 13.485716 -0.412448 30
-6.529338 13.417533 -1.121982 15
-6.596748 13.561795 -0.901265 37
-6.167225 13.800481 -0.699624 34
-7.008121 13.346765 -0.871848 3
-6.720740 13.857718 -1.635066 27
-7.134233 13.592439 -0.179518 30
-6.688627 13.797352 -1.390027 10
-6.607827 13.636458 -0.672198 33
-6.631937 13.692020 -0.440899 27
-6.672056 13.798105 -0.208662 19
-6.719108 13.901312 0.026948 31
-6.169334 13.879389 -0.469365 23
-6.213069 13.984051 -0.237714 35
-7.001693 13.399332 -0.641578 23
-7.055034 13.506887 -0.412340 28
-6.492859 13.461800 -1.123781 11
-6.549369 13.584740 -0.901265 38
-6.742420 14.003036 0.265855 22
-6.123868 13.832886 -0.700179 34
-6.954113 13.356978 -0.870924 37
-6.661987 13.859584 -1.632532 42
-7.084897 13.613711 -0.179471 31
-6.638699 13.817024 -1.389666 12
-6.554996 13.648634 -0.671666 34
-6.578912 13.704273 -0.440552 28
-6.620394 13.814097 -0.208553 20
-6.668814 13.921074 0.026941 35
-6.124071 13.908157 -0.469612 26
-6.969586 13.452078 -0.642935 25
-7.002326 13.520780 -0.412015 31
-6.604093 13.815463 -1.151373 4
-6.500188 13.603916 -0.901026 40
-6.695222 14.030096 0.265924 34
-6.072335 13.846859 -0.699809 30
-7.433847 13.335090 -0.383787 1
-6.905614 13.377623 -0.870693 41
-6.620410 13.897118 -1.634222 42
-7.039167 13.641913 -0.179518 32
-6.590428 13.840114 -1.389666 9
-6.510749 13.678649 -0.672021 36
-6.537906 13.741596 -0.441015 28
-6.572199 13.837091 -0.208553 23
-6.625367 13.955089 0.026962 32
-6.077099 13.933107 -0.469736 26
-6.924379 13.479897 -0.643105 27
-6.965988 13.566512 -0.412664 26
-6.576236 13.881728 -1.154972 3
-6.455972 13.633791 -0.901504 33
-6.025346 13.871727 -0.699994 34
-7.400596 13.385565 -0.384490 28
-6.853167 13.391109 -0.870000 39
-6.590253 13.959845 -1.638867 6
-6.994869 13.673666 -0.179611 29
-6.562169 13.906412 -1.394000 9
-6.464336 13.705062 -0.672198 35
-6.484427 13.753653 -0.440667 30
-6.517045 13.845473 -0.208336 19
-6.573208 13.970891 0.026948 30
-6.028426 13.954236 -0.469736 27
-6.870029 13.489740 -0.642426 33
-6.911334 13.576492 -0.412231 27
-6.408342 13.656243 -0.901504 30
-5.953202 13.837618 -0.697220 4
-7.355749 13.414823 -0.384591 58
-6.776509 13.350506 -1.096839 22
-6.806382 13.414950 -0.870000 38
-6.943478 13.690866 -0.179518 29
-7.001288 13.810612 0.056752 9
-6.414765 13.723924 -0.672021 36
-6.434686 13.772581 -0.440552 28
-6.477129 13.886261 -0.208608 20
-6.526091 13.997376 0.026955 27
-5.978107 13.971518 -0.469612 17
-6.826502 13.520774 -0.642766 27
-6.858496 13.589825 -0.411907 26
-6.362317 13.682150 -0.901742 30
-7.289774 13.405288 -0.383586 48
-6.726279 13.366952 -1.096254 32
-6.772074 13.463599 -0.871617 42
-6.895645 13.715019 -0.179518 30
-6.953037 13.834967 0.056752 30
-6.378577 13.771613 -0.673261 39
-6.394970 13.813100 -0.441131 30
-6.427622 13.900434 -0.208499 18
-6.479597 14.018960 0.026955 25
-6.920496 13.814836 -1.370838 4
-6.785240 13.550467 -0.643105 33
-6.815241 13.616040 -0.412015 29
-6.315347 13.699497 -0.901504 36
-7.215590 13.368548 -0.615467 55
-7.249281 13.436317 -0.383787 42
-6.685705 13.396210 -1.096839 30
-6.727642 13.485857 -0.871617 45
-6.852193 13.741250 -0.179564 29
-6.902076 13.847054 0.056708 29
-6.331539 13.788906 -0.673084 34
-6.354491 13.844968 -0.441479 29
-6.380727 13.926422 -0.208553 19
-6.896217 13.881412 -1.615446 31
-6.849193 13.792518 -1.366243 8
-6.737898 13.574070 -0.643105 32
-6.774779 13.654075 -0.412448 29
-6.269147 13.725091 -0.901742 24
-7.142477 13.344321 -0.613200 58
-7.204221 13.465066 -0.383887 42
-6.640671 13.423041 -1.097131 32
-6.671676 13.491361 -0.870462 41
-6.804185 13.765084 -0.179564 25
-6.850155 13.863891 0.056678 32
-6.283368 13.810923 -0.673084 31
-6.301159 13.856146 -0.441131 28
-6.326336 13.942430 -0.208445 20
-6.834751 13.885178 -1.612958 33
-7.227685 13.579596 -0.150358 6
-6.781005 13.781778 -1.362708 5
-6.682811 13.587915 -0.642596 33
-6.719397 13.668049 -0.412123 29
-7.104758 13.391594 -0.614171 59
-7.152948 13.487847 -0.383787 45
-6.591429 13.447290 -1.097131 31
-6.623940 13.519309 -0.870693 49
-6.748411 13.779155 -0.179424 27
-6.795778 13.881720 0.056649 35
-6.229423 13.826573 -0.672730 33
-6.248690 13.875503 -0.441015 31
-6.285055 13.974246 -0.208608 19
-6.785193 13.900608 -1.612129 27
-7.171423 13.582258 -0.150124 35
-6.733509 13.800612 -1.362354 11
-6.637681 13.610019 -0.642596 32
-6.673976 13.690285 -0.412123 25
-7.054548 13.404564 -0.613685 64
-7.111701 13.518679 -0.383988 42
-6.553548 13.483537 -1.098300 33
-6.578819 13.541324 -0.870693 39
-6.702397 13.801595 -0.179424 24
-6.758131 13.922321 0.056722 30
-6.183205 13.847303 -0.672730 33
-6.199023 13.889006 -0.440783 30
-6.236237 13.996099 -0.208608 16
-6.989483 13.344869 -0.842235 42
-6.703709 13.856163 -1.604251 27
-7.140666 13.639101 -0.150476 42
-6.683560 13.820446 -1.362001 10
-6.588394 13.629507 -0.642426 35
-6.622669 13.706297 -0.411907 29
-7.004017 13.422021 -0.613362 64
-7.057071 13.529239 -0.383586 44
-6.502979 13.499143 -1.097715 31
-6.534976 13.571402 -0.871155 40
-6.654180 13.824906 -0.179424 24
-6.707757 13.942222 0.056708 30
-6.136447 13.872458 -0.672907 32
-6.156971 13.925187 -0.441247 29
-6.959424 13.401084 -0.844244 37
-6.653581 13.875891 -1.603836 31
-7.093013 13.663943 -0.150476 42
-6.635277 13.843692 -1.362001 11
-6.544231 13.659630 -0.642766 34
-6.574785 13.729331 -0.411907 28
-6.717010 14.032383 0.295997 4
-7.458388 13.349683 -0.355032 0
-6.957122 13.446387 -0.613362 65
-7.009802 13.553790 -0.383586 45
-6.467850 13.546961 -1.099761 11
-6.480683 13.579714 -0.870231 42
-6.605882 13.848049 -0.179424 24
-6.659050 13.965551 0.056708 36
-6.087986 13.893793 -0.672907 33
-6.109930 13.950256 -0.441363 34
-6.890686 13.382675 -0.841565 33
-6.613652 13.916994 -1.605909 28
-7.045282 13.688615 -0.150476 40
-6.588617 13.870370 -1.362354 9
-6.499919 13.689620 -0.643105 36
-6.531930 13.763050 -0.412231 30
-7.438818 13.424638 -0.356332 16
-6.911866 13.474198 -0.613524 64
-6.965981 13.585353 -0.383787 48
-6.450171 13.638421 -0.872541 41
-6.560760 13.878332 -0.179518 24
-6.615210 13.999644 0.056752 35
-6.040852 13.918707 -0.673084 33
-6.064175 13.978924 -0.441594 29
-6.808663 13.331990 -1.067808 15
-6.842114 13.403090 -0.841342 29
-6.973823 13.666808 -0.149967 40
-6.570706 13.958173 -1.368717 7
-6.452094 13.712225 -0.643105 35
-6.483848 13.785768 -0.412231 28
-7.366875 13.404963 -0.355125 9
-6.866602 13.501806 -0.613685 65
-6.916705 13.606021 -0.383686 47
-6.402524 13.660852 -0.872541 35
-6.513973 13.904771 -0.179564 26
-6.561213 14.011783 0.056708 32
-6.001698 13.961737 -0.674148 26
-6.016921 14.003680 -0.441710 10
-6.767491 13.366354 -1.068662 38
-6.804304 13.444708 -0.842458 31
-6.935102 13.708913 -0.150163 41
-6.404190 13.734664 -0.643105 32
-6.435688 13.808316 -0.412231 30
-7.318124 13.427086 -0.355032 10
-6.819430 13.525693 -0.613685 65
-6.867369 13.626511 -0.383586 45
-6.349754 13.672254 -0.871848 38
-6.462028 13.920168 -0.179471 26
-6.503845 14.016459 0.056634 31
-6.930252 13.786100 -1.339096 2
-6.713597 13.375650 -1.067524 39
-6.751936 13.457680 -0.841788 36
-6.885406 13.729466 -0.150124 42
-6.937093 13.838341 0.086456 20
-6.356227 13.756927 -0.643105 34
-6.389158 13.834311 -0.412340 30
-7.235860 13.381623 -0.587071 51
-7.263664 13.438445 -0.354661 10
-6.765130 13.535064 -0.613038 70
-6.812730 13.636033 -0.383184 45
-6.303804 13.697896 -0.872079 39
-6.411889 13.938932 -0.179424 23
-6.908358 13.856577 -1.583650 8
-6.855628 13.756607 -1.333909 5
-6.670983 13.401412 -1.067808 40
-6.710830 13.487147 -0.842235 29
-6.836277 13.745062 -0.150046 39
-6.894727 13.868432 0.086501 36
-6.308908 13.774295 -0.642935 29
-6.343247 13.855422 -0.412340 31
-7.164993 13.356234 -0.584912 30
-7.222840 13.469506 -0.354847 10
-6.723759 13.564585 -0.613362 78
-6.772799 13.669299 -0.383485 49
-6.255031 13.711458 -0.871617 39
-6.363971 13.956479 -0.179377 30
-6.853552 13.861575 -1.581615 14
-6.806440 13.772120 -1.333217 4
-6.631225 13.438928 -1.068947 50
-6.661943 13.506908 -0.842012 34
-6.791793 13.776016 -0.150124 40
-6.844507 13.888826 0.086479 39
-6.269046 13.814429 -0.643783 31
-6.299799 13.888404 -0.412664 28
-7.114573 13.374105 -0.584603 31
-7.172024 13.487576 -0.354661 10
-6.679893 13.595147 -0.613685 72
-6.723280 13.689268 -0.383385 48
-6.205486 13.729570 -0.871386 32
-6.316862 13.982253 -0.179424 26
-6.785861 13.846108 -1.577138 12
-6.747807 13.774323 -1.331142 7
-6.573163 13.445220 -1.067524 38
-6.621161 13.549176 -0.843128 35
-6.735989 13.790034 -0.150007 35
-6.791800 13.910226 0.086456 35
-6.210181 13.819088 -0.642935 33
-6.243938 13.900458 -0.412340 32
-7.072963 13.414234 -0.585220 31
-7.126270 13.520846 -0.354847 9
-6.630020 13.619538 -0.613685 70
-6.673062 13.713818 -0.383385 48
-6.270472 14.016265 -0.179564 16
-7.017913 13.358812 -0.814605 43
-6.726377 13.852989 -1.575103 20
-7.163276 13.641088 -0.121013 39
-6.695536 13.795378 -1.330796 8
-6.533149 13.482445 -1.068662 44
-6.572084 13.568611 -0.842905 29
-6.680840 13.799064 -0.149850 34
-6.741461 13.930248 0.086434 34
-6.165156 13.847982 -0.643274 29
-6.197004 13.925822 -0.412448 32
-7.033504 13.453011 -0.585837 29
-7.080883 13.549184 -0.354939 10
-6.580701 13.638999 -0.613524 65
-6.626888 13.740629 -0.383485 51
-6.967549 13.376143 -0.814174 44
-6.664175 13.847699 -1.571847 32
-7.100838 13.637628 -0.120762 47
-6.652523 13.829439 -1.331834 9
-6.487774 13.508764 -1.068947 46
-6.526409 13.595070 -0.843128 35
-6.641284 13.840330 -0.150046 40
-6.687604 13.942876 0.086367 36
-6.115168 13.865763 -0.643105 33
-6.148356 13.947370 -0.412448 35
-6.984661 13.473931 -0.585683 28
-7.026185 13.559616 -0.354568 10
-6.534777 13.665492 -0.613685 60
-6.575435 13.756462 -0.383284 46
-6.911651 13.382639 -0.813096 37
-6.622649 13.885243 -1.573475 28
-7.056860 13.669439 -0.120824 30
-6.607638 13.859771 -1.332525 8
-6.438794 13.527760 -1.068662 42
-6.478869 13.617790 -0.843128 32
-6.591196 13.859824 -0.150007 34
-6.645774 13.980580 0.086456 39
-6.068368 13.890669 -0.643274 33
-6.096499 13.961389 -0.412231 32
-6.941331 13.505293 -0.585991 28
-6.973447 13.573327 -0.354290 10
-6.483814 13.680901 -0.613362 70
-6.524183 13.771994 -0.383083 49
-6.846396 13.364264 -1.042112 11
-6.861586 13.399403 -0.812665 35
-6.584716 13.929686 -1.575917 9
-7.009469 13.693802 -0.120824 29
-6.568130 13.900578 -1.334255 9
-6.500472 13.781101 -1.086876 5
-6.432998 13.643934 -0.843351 27
-6.542776 13.882748 -0.150007 39
-6.593523 13.996456 0.086411 36
-6.021430 13.915435 -0.643444 31
-6.050902 13.989923 -0.412448 13
-6.888703 13.518757 -0.585529 28
-6.933285 13.611839 -0.354661 10
-6.436019 13.703450 -0.613362 64
-6.477769 13.798304 -0.383184 52
-6.794283 13.377408 -1.041281 32
-6.823812 13.441080 -0.813743 41
-6.963436 13.721753 -0.120856 31
-6.380261 13.655452 -0.842681 30
-6.494277 13.905501 -0.150007 43
-6.542933 14.015761 0.086389 38
-5.974394 13.940042 -0.643614 33
-6.845076 13.549856 -0.585837 26
-6.874913 13.614541 -0.354104 10
-6.389832 13.729456 -0.613524 65
-6.427878 13.817205 -0.383083 48
-6.745751 13.397479 -1.041005 38
-6.775056 13.461250 -0.813527 40
-6.906507 13.728110 -0.120699 39
-6.338305 13.683781 -0.843128 35
-6.451491 13.934219 -0.150085 40
-6.496418 14.037382 0.086389 7
-5.921882 13.945065 -0.642935 10
-6.893773 13.753741 -1.305412 6
-6.796515 13.565338 -0.585529 27
-6.831506 13.640845 -0.354197 10
-6.342574 13.746950 -0.613362 67
-6.387024 13.849349 -0.383385 48
-6.701256 13.419790 -1.041005 38
-6.728562 13.480086 -0.813312 41
-6.855551 13.740219 -0.120605 46
-6.908623 13.852358 0.116175 14
-6.290501 13.705822 -0.843128 31
-6.402812 13.956655 -0.150085 40
-6.894973 13.871051 -1.554321 7
-6.661277 13.406507 -1.270240 7
-6.743788 13.578240 -0.585066 30
-6.778515 13.653863 -0.353918 10
-6.296212 13.772641 -0.613524 70
-6.340304 13.875196 -0.383485 49
-6.656142 13.446676 -1.041281 39
-6.681467 13.503490 -0.813312 42
-6.812867 13.774821 -0.120699 45
-6.862000 13.879975 0.116205 32
-6.240224 13.728786 -0.843128 31
-6.353271 13.983669 -0.150124 41
-6.833536 13.874806 -1.551925 9
-6.777574 13.766961 -1.302030 6
-6.701035 13.617211 -0.585683 30
-6.733720 13.689381 -0.354197 10
-6.248987 13.802907 -0.613847 57
-6.291055 13.901985 -0.383586 51
-6.608570 13.474565 -1.041558 35
-6.635446 13.535062 -0.813743 43
-6.758813 13.792516 -0.120636 40
-6.807562 13.897848 0.116145 32
-6.195623 13.757731 -0.843575 31
-6.304451 14.005748 -0.150124 40
-6.791977 13.912915 -1.553522 19
-6.724116 13.779846 -1.301016 8
-6.649792 13.633415 -0.585374 31
-6.685680 13.712908 -0.354197 10
-6.198767 13.821154 -0.613685 67
-6.237164 13.913101 -0.383284 47
-6.550478 13.476285 -1.039897 35
-6.580576 13.544063 -0.812880 42
-6.718703 13.834335 -0.120793 38
-6.758292 13.921874 0.116145 31
-6.704184 13.849385 -1.543937 16
-6.688799 13.823595 -1.303045 9
-6.601065 13.648195 -0.585066 31
-6.633207 13.720601 -0.353825 10
-6.151277 13.837981 -0.613524 65
-6.195864 13.944671 -0.383586 52
-6.512683 13.512312 -1.041005 38
-6.544294 13.583802 -0.813958 41
-6.665848 13.842124 -0.120667 37
-6.710353 13.940605 0.116115 29
-6.652357 13.865526 -1.543139 12
-6.637058 13.839672 -1.302368 8
-6.560295 13.685571 -0.585683 36
-6.588729 13.750885 -0.354011 10
-6.107768 13.870342 -0.614009 72
-6.148761 13.969873 -0.383686 48
-6.468916 13.542164 -1.041558 43
-6.500280 13.613772 -0.814390 40
-6.622658 13.876138 -0.120762 35
-6.656484 13.953114 0.116025 30
-6.609131 13.899405 -1.544337 10
-6.593992 13.873483 -1.303383 7
-6.510980 13.704677 -0.585529 29
-6.542681 13.777281 -0.354104 10
-6.056588 13.884047 -0.613685 64
-6.103693 13.998348 -0.383887 49
-6.420606 13.560721 -1.041281 33
-6.453493 13.636013 -0.814390 49
-6.573322 13.895152 -0.120730 31
-6.610368 13.979445 0.116055 29
-6.594504 13.994396 -1.552324 2
-6.461400 13.723704 -0.585374 26
-6.491144 13.792799 -0.353918 10
-6.014427 13.919779 -0.614333 67
-6.402046 13.644464 -1.045989 12
-6.400767 13.647609 -0.813743 40
-6.529872 13.928877 -0.120824 38
-6.566622 14.013299 0.116145 33
-6.419236 13.752299 -0.585683 30
-6.455514 13.835992 -0.354475 10
-5.961942 13.924950 -0.613685 62
-6.368545 13.690945 -1.047928 4
-6.352107 13.661515 -0.813312 47
-6.476903 13.935946 -0.120699 36
-6.372824 13.778272 -0.585837 30
-6.403761 13.851210 -0.354290 10
-5.910075 13.938361 -0.613362 57
-6.304211 13.683683 -0.813312 56
-6.429704 13.962189 -0.120730 42
-6.318028 13.785899 -0.585220 30
-6.355372 13.873479 -0.354290 10
-6.259725 13.712873 -0.813743 55
-6.384249 13.991825 -0.120793 37
-6.271521 13.811508 -0.585374 35
-6.306906 13.895578 -0.354290 10
-6.220049 13.752836 -0.814821 52
-6.328779 13.999446 -0.120667 36
-6.231339 13.851601 -0.586146 36
-6.264751 13.932176 -0.354661 10
-6.171525 13.774680 -0.814821 48
-6.184577 13.876919 -0.586300 29
-6.209572 13.939347 -0.354290 10
-6.116923 13.781536 -0.813958 13
-6.131257 13.887453 -0.585837 33
-6.157648 13.953620 -0.354104 10
-6.085994 13.916074 -0.586146 34
-6.105762 13.967674 -0.353918 7
-6.038224 13.932511 -0.585991 30
-5.991130 13.957177 -0.586146 30
-5.948761 13.992662 -0.586763 29