# This PCD file was generated using the MATLAB® pcwrite function
# from Computer Vision Toolbox®.
# .PCD v.7 - Point Cloud Data file format
VERSION .7
FIELDS x y z intensity
SIZE 4 4 4 1
TYPE F F F U
COUNT 1 1 1 1
WIDTH 1501
HEIGHT 1
VIEWPOINT 0 0 0 1 0 0 0
POINTS 1501
DATA ascii
0.009712 2.915984 -0.000509 101
-0.083658 2.937721 0.231297 79
-0.176080 2.918857 -0.214224 100
0.278033 2.813655 -0.060212 101
0.191433 2.853994 0.208549 101
0.100566 2.849331 -0.225388 101
0.010226 2.923645 0.044397 101
-0.175769 2.921827 -0.169289 100
0.280845 2.837258 0.070676 101
0.188235 2.799308 -0.512197 101
0.101304 2.856665 -0.093826 101
0.010740 2.930473 0.179750 100
-0.081013 2.878677 -0.305730 101
-0.175561 2.926538 -0.034285 88
0.283151 2.855683 0.115259 101
0.189026 2.804067 -0.314744 101
0.101963 2.861748 -0.049984 101
0.011218 2.927365 0.224736 101
-0.081099 2.898973 -0.262910 101
-0.176038 2.942719 0.010805 82
0.280816 2.827322 0.247576 101
0.191617 2.835435 -0.186268 101
0.102844 2.872982 0.082310 101
0.011427 2.857348 -0.419494 101
-0.080754 2.904020 -0.128873 101
-0.174378 2.923177 0.145783 73
-0.274212 2.995782 -0.307695 0
0.190372 2.810022 -0.141197 101
0.103842 2.887336 0.127156 101
0.011913 2.859316 -0.309109 101
-0.080314 2.905670 -0.084240 101
-0.177054 2.976409 0.194384 85
0.279020 2.786215 -0.582024 101
0.193402 2.827683 -0.098480 101
0.105183 2.873006 0.170802 101
0.013665 2.839820 -0.262945 101
-0.078572 2.910670 -0.039641 101
-0.174235 2.961251 0.239190 87
0.277677 2.768109 -0.316969 101
0.194779 2.840796 -0.055171 101
0.106290 2.889959 0.216429 101
0.014221 2.855485 -0.220222 101
-0.077875 2.902951 0.005068 100
0.280903 2.795534 -0.189570 101
0.197143 2.868207 0.076790 101
0.105101 2.844605 -0.463283 101
0.014799 2.874590 -0.088832 101
-0.077937 2.923614 0.139970 101
-0.170076 2.907256 -0.303518 100
0.283632 2.817927 -0.147436 101
0.198345 2.878620 0.121440 101
0.105885 2.852801 -0.314160 101
0.015288 2.875612 -0.044672 101
-0.077802 2.937096 0.185881 101
-0.170303 2.919550 -0.259462 100
0.286492 2.841544 -0.016948 101
0.194899 2.821678 0.256409 101
0.105750 2.836292 -0.180558 101
0.015898 2.898604 0.088562 101
-0.169397 2.912452 -0.123804 100
0.286158 2.833460 0.026841 101
0.105869 2.826733 -0.136368 101
0.016467 2.912882 0.133804 101
-0.075039 2.869244 -0.385519 101
-0.168997 2.914035 -0.078984 100
0.290628 2.872884 0.160428 101
0.194915 2.808177 -0.271543 101
0.107521 2.857972 -0.005990 101
0.016890 2.901381 0.291136 101
-0.074496 2.866937 -0.215639 101
-0.170154 2.942551 0.056080 82
-0.261352 2.913767 -0.841185 56
0.290426 2.866075 0.204474 101
0.195931 2.815950 -0.228601 101
0.107690 2.849715 0.037829 101
-0.075224 2.913829 -0.174192 101
-0.170280 2.953346 0.101754 79
-0.260641 2.911341 -0.351132 0
0.281924 2.768242 -0.273813 101
0.198276 2.829037 -0.011384 101
0.109258 2.853039 0.271398 101
0.018538 2.854513 -0.176094 101
-0.073166 2.890651 0.049463 101
-0.255506 2.870286 -0.116746 0
0.284806 2.791880 -0.232698 101
0.201264 2.864754 0.032581 101
0.018927 2.840896 -0.131492 101
-0.073255 2.913543 0.094646 101
-0.163696 2.872789 -0.360955 101
-0.256921 2.891692 -0.072978 0
0.285250 2.791578 -0.102896 101
0.201987 2.868150 0.165283 101
0.109916 2.845185 -0.269150 101
0.019754 2.891932 -0.000505 101
-0.073176 2.930023 0.230670 75
-0.165410 2.911490 -0.213640 100
0.287882 2.812665 -0.060212 101
0.202267 2.865245 0.209422 101
0.110542 2.848961 -0.225388 101
0.020378 2.911593 0.044215 101
-0.164860 2.910463 -0.168596 100
0.290372 2.832279 0.070577 101
0.197482 2.790781 -0.510760 101
0.111152 2.852298 -0.093695 101
0.020888 2.914448 0.178770 100
-0.070931 2.878943 -0.305730 101
-0.165311 2.927135 -0.034285 100
0.292744 2.850698 0.115098 101
0.198567 2.799422 -0.314298 101
0.111049 2.837395 -0.049565 101
0.021414 2.919331 0.224124 101
-0.070943 2.899240 -0.262910 101
-0.165503 2.939324 0.010790 96
0.289091 2.810465 0.246187 101
0.200703 2.822802 -0.185483 101
0.112597 2.864613 0.082081 101
0.021291 2.837503 -0.416589 101
-0.070287 2.892301 -0.128342 101
-0.163238 2.907815 0.144988 80
-0.260224 2.957085 -0.303624 9
0.199936 2.805352 -0.140997 101
0.113646 2.878969 0.126804 101
0.021936 2.859256 -0.309109 101
-0.070322 2.913928 -0.084472 101
-0.166174 2.969041 0.193863 75
0.287128 2.769643 -0.578768 101
0.202411 2.815029 -0.098064 101
0.114251 2.848683 0.169379 101
0.023511 2.831789 -0.262208 101
-0.067942 2.890934 -0.039369 101
-0.162575 2.937955 0.237261 89
-0.254390 2.917490 -0.208894 1
0.287338 2.767123 -0.316969 101
0.204981 2.844088 -0.055249 101
0.116217 2.885584 0.216130 101
0.024289 2.867382 -0.221144 101
-0.067928 2.911203 0.005082 101
-0.256572 2.948235 -0.165455 0
0.291072 2.798506 -0.189839 101
0.207154 2.867502 0.076790 101
0.114871 2.840276 -0.462641 101
0.024799 2.870522 -0.088709 101
-0.067639 2.919874 0.139778 101
-0.159709 2.903859 -0.303103 101
0.292639 2.808973 -0.147020 101
0.206660 2.853994 0.120431 101
0.115358 2.840496 -0.312848 101
0.025220 2.863544 -0.044486 101
-0.067182 2.921386 0.184871 100
-0.159238 2.904213 -0.258048 100
0.295579 2.832570 -0.016900 101
0.205035 2.824954 0.256770 101
0.115487 2.831917 -0.180304 101
0.025909 2.886537 0.088195 101
-0.159230 2.913026 -0.123804 101
0.295631 2.828466 0.026804 101
0.116063 2.834330 -0.136753 101
0.026452 2.892829 0.132886 101
-0.064843 2.861562 -0.384454 101
-0.160130 2.938563 -0.079633 100
0.298575 2.851991 0.159318 101
0.203558 2.791595 -0.270007 101
0.116017 2.821610 -0.005915 101
0.026943 2.893345 0.290337 101
-0.064309 2.859204 -0.215039 101
-0.157496 2.899200 0.055243 98
-0.247219 2.868701 -0.827920 75
0.301261 2.872980 0.205040 101
0.205759 2.815249 -0.228601 101
0.117802 2.853318 0.037882 101
-0.064874 2.906090 -0.173715 101
-0.159105 2.937955 0.101204 80
-0.249116 2.896406 -0.349224 7
0.291168 2.763282 -0.273421 101
0.208444 2.832317 -0.011400 101
0.119549 2.860597 0.272155 101
0.028502 2.854431 -0.176094 101
-0.063250 2.898886 0.049600 101
-0.250252 2.926911 -0.119013 0
0.294550 2.790869 -0.232698 101
0.211557 2.868023 0.032626 101
0.028844 2.840812 -0.131492 101
-0.063171 2.917778 0.094776 101
-0.154727 2.893159 -0.363445 101
-0.246825 2.892571 -0.072978 0
0.295833 2.798516 -0.103189 101
0.212587 2.875392 0.165742 101
0.120014 2.848763 -0.269526 101
0.029807 2.887846 -0.000504 101
-0.063034 2.934248 0.230984 81
-0.155246 2.912050 -0.213640 101
0.297699 2.811643 -0.060212 101
0.212857 2.872479 0.210004 101
0.120654 2.852542 -0.225703 101
0.030541 2.911504 0.044215 101
-0.155124 2.918996 -0.169058 100
0.301100 2.839202 0.070775 101
0.207514 2.793999 -0.511478 101
0.121616 2.863875 -0.094088 101
0.031104 2.918349 0.179015 101
-0.060965 2.883150 -0.306153 101
-0.154669 2.919706 -0.034192 100
0.300583 2.829786 0.114295 101
0.208633 2.802676 -0.314744 101
0.120612 2.828999 -0.049425 101
0.031561 2.915251 0.223818 101
-0.060238 2.871590 -0.260382 101
-0.154398 2.923907 0.010732 100
0.298478 2.805476 0.245840 101
0.211446 2.834025 -0.186268 101
0.122083 2.852219 0.081737 101
0.031327 2.849283 -0.418332 101
-0.060273 2.896524 -0.128519 101
-0.154767 2.940283 0.146579 83
-0.245880 2.910394 -0.298740 17
0.209728 2.804637 -0.140997 101
0.123180 2.866577 0.126276 101
0.031872 2.855186 -0.308679 101
-0.059737 2.894168 -0.083893 101
-0.155182 2.957645 0.193083 81
-0.247421 2.934519 -0.255576 6
0.296377 2.764729 -0.577954 101
0.212837 2.822278 -0.098341 101
0.124889 2.864223 0.170328 101
0.033396 2.831690 -0.262208 101
-0.058090 2.903150 -0.039533 101
-0.151081 2.914614 0.235332 80
-0.244205 2.918360 -0.208894 2
0.296146 2.758200 -0.316063 101
0.214003 2.831391 -0.055016 101
0.126463 2.889146 0.216429 101
0.034107 2.851329 -0.219914 101
-0.057290 2.887427 0.005041 101
-0.244617 2.929214 -0.164339 2
0.299986 2.789537 -0.189300 101
0.216860 2.862774 0.076683 101
0.124958 2.843802 -0.463283 101
0.034770 2.866421 -0.088585 101
-0.057446 2.920092 0.139778 101
-0.149776 2.908372 -0.303518 101
-0.245823 2.949633 -0.028930 1
0.301586 2.799992 -0.146604 101
0.217529 2.865211 0.120936 101
0.124747 2.828160 -0.311535 101
0.035363 2.875436 -0.044672 101
-0.057296 2.937567 0.185881 100
-0.148487 2.892814 -0.256988 101
0.305893 2.835498 -0.016924 101
0.215197 2.828193 0.257132 101
0.125548 2.835485 -0.180558 101
0.036184 2.902420 0.088684 101
-0.149265 2.917555 -0.123974 100
0.303784 2.811510 0.026653 101
0.125601 2.825925 -0.136368 101
0.036549 2.892719 0.132886 101
-0.054778 2.857807 -0.383922 101
-0.148853 2.919137 -0.079092 100
0.309388 2.858873 0.159762 101
0.213908 2.798808 -0.270775 101
0.126936 2.845164 -0.005965 101
0.036992 2.889253 0.289938 101
-0.054328 2.859411 -0.215039 101
-0.148187 2.915708 0.055547 100
-0.236887 2.865716 -0.826815 57
0.310858 2.867944 0.204757 101
0.215281 2.810539 -0.228278 101
0.127761 2.852889 0.037882 101
-0.054955 2.918275 -0.174431 101
-0.149051 2.942485 0.101341 97
-0.241289 2.924964 -0.352563 23
0.301674 2.770163 -0.274205 101
0.219252 2.843537 -0.011449 101
0.130074 2.872096 0.273290 101
0.038519 2.858307 -0.176340 101
-0.052910 2.887093 0.049395 101
-0.244932 2.987517 -0.121442 3
0.304290 2.789824 -0.232698 101
0.220950 2.859291 0.032536 101
0.038869 2.848685 -0.131861 101
-0.052913 2.913983 0.094646 101
-0.145023 2.901609 -0.364441 101
-0.240966 2.945225 -0.074285 2
0.305600 2.797466 -0.103189 101
0.222314 2.870651 0.165512 101
0.130139 2.852304 -0.269903 101
0.039998 2.895724 -0.000505 101
-0.052576 2.922489 0.230042 68
-0.145477 2.920542 -0.214224 101
-0.242771 2.973451 0.062492 1
0.307946 2.814562 -0.060297 101
0.222265 2.863763 0.209422 101
0.129881 2.836170 -0.224443 101
0.040648 2.907381 0.044154 101
-0.144538 2.911543 -0.168596 100
0.311009 2.838133 0.070775 101
0.216656 2.785412 -0.510041 101
0.131429 2.859440 -0.093957 101
0.041178 2.910239 0.178526 101
-0.050831 2.879368 -0.305730 101
-0.144476 2.920228 -0.034192 101
0.311767 2.840639 0.114777 101
0.218415 2.801931 -0.314744 101
0.131408 2.848536 -0.049774 101
0.041851 2.923098 0.224430 101
-0.050214 2.871783 -0.260382 101
-0.143600 2.912442 0.010688 101
0.308704 2.808378 0.246187 101
0.220404 2.821332 -0.185483 101
0.132038 2.851775 0.081737 101
0.041215 2.845200 -0.417751 101
-0.050093 2.892721 -0.128342 101
-0.143326 2.916864 0.145385 91
-0.234756 2.899336 -0.297519 38
0.219828 2.807871 -0.141197 101
0.133371 2.870121 0.126452 101
0.041955 2.863010 -0.309539 101
-0.049703 2.898357 -0.084008 101
-0.143686 2.934248 0.191521 81
-0.235251 2.911532 -0.253501 52
0.306442 2.767572 -0.578768 101
0.221414 2.805578 -0.097786 101
0.135059 2.867759 0.170565 101
0.043326 2.835539 -0.262576 101
-0.047906 2.899336 -0.039478 101
-0.141306 2.923088 0.235975 96
-0.235308 2.935102 -0.210033 40
0.306201 2.761100 -0.316516 101
0.224507 2.838601 -0.055171 101
0.135596 2.868766 0.214936 101
0.044051 2.851192 -0.219914 101
-0.047220 2.887609 0.005041 100
-0.232171 2.902181 -0.162776 46
0.308836 2.780540 -0.188762 101
0.226532 2.858014 0.076577 101
0.134506 2.835461 -0.461998 101
0.044710 2.862284 -0.088462 101
-0.047128 2.912285 0.139396 100
-0.139436 2.904903 -0.303103 101
-0.237120 2.970408 -0.029126 4
0.312244 2.806862 -0.147020 101
0.226899 2.856466 0.120599 101
0.134999 2.835650 -0.312410 101
0.045339 2.871296 -0.044610 101
-0.047039 2.937749 0.185881 100
-0.139718 2.921173 -0.259462 101
-0.241069 3.026366 0.016956 2
0.314911 2.826461 -0.016877 101
0.224444 2.819482 0.256409 101
0.134881 2.823066 -0.179796 101
0.046132 2.890283 0.088317 101
-0.138501 2.906083 -0.123465 100
0.315384 2.826332 0.026804 101
0.135287 2.821478 -0.136175 101
0.046790 2.900564 0.133253 101
-0.044913 2.865909 -0.384987 101
-0.138459 2.915646 -0.078984 97
-0.236978 2.987873 0.201179 1
0.318055 2.845866 0.159097 101
0.222110 2.778198 -0.268855 101
0.135925 2.824725 -0.005923 101
0.046967 2.881147 0.289139 101
-0.044265 2.855595 -0.214739 100
-0.137610 2.908219 0.055395 100
-0.227469 2.874191 -0.829026 56
0.320893 2.866839 0.204757 101
0.225115 2.809768 -0.228278 101
0.137166 2.840440 0.037723 101
-0.044742 2.918450 -0.174431 101
-0.138941 2.946982 0.101479 97
-0.230739 2.921831 -0.352086 43
0.310494 2.761177 -0.273421 101
0.228576 2.834777 -0.011417 101
0.139365 2.855713 0.271776 101
0.048540 2.858154 -0.176340 101
-0.042907 2.895258 0.049531 101
-0.230393 2.936559 -0.119337 62
0.312736 2.776855 -0.231707 101
0.231623 2.866472 0.032626 101
0.048861 2.848531 -0.131861 101
-0.042749 2.918148 0.094776 101
-0.134107 2.886241 -0.362449 101
-0.231569 2.958012 -0.074586 25
0.314521 2.788432 -0.102896 101
0.232066 2.865873 0.165283 101
0.139563 2.839898 -0.268773 101
0.049953 2.883567 -0.000503 101
-0.042491 2.934617 0.230984 87
-0.135041 2.917050 -0.213932 101
-0.232022 2.970298 0.062408 2
0.317829 2.813463 -0.060297 101
0.232644 2.866941 0.209713 101
0.140430 2.847645 -0.225388 101
0.050858 2.907220 0.044154 101
-0.042567 2.974865 0.316904 1
-0.133760 2.900066 -0.167903 101
-0.235763 3.024826 0.110191 2
0.320980 2.837023 0.070775 101
0.226761 2.788555 -0.510760 101
0.141673 2.862953 -0.094088 101
0.051545 2.918060 0.179015 101
-0.040712 2.879529 -0.305730 101
-0.134030 2.916723 -0.034145 101
0.320403 2.827611 0.114295 101
0.227942 2.797183 -0.314298 101
0.141026 2.840068 -0.049635 101
0.051987 2.914958 0.223818 101
-0.040283 2.883891 -0.261465 101
-0.133725 2.920921 0.010717 101
0.318582 2.807275 0.246187 101
0.230329 2.820539 -0.185483 101
0.142667 2.863273 0.082081 101
0.051367 2.852951 -0.418913 101
-0.039971 2.896875 -0.128519 101
-0.133610 2.929323 0.145982 90
-0.227012 2.931883 -0.300775 51
0.229385 2.803098 -0.140997 101
0.144072 2.881608 0.126980 101
0.052033 2.862844 -0.309539 101
-0.039827 2.922502 -0.084704 101
-0.134262 2.954672 0.192822 86
-0.227149 2.940154 -0.255922 91
0.316990 2.774268 -0.580396 101
0.231206 2.804788 -0.097786 101
0.144463 2.855307 0.169853 101
0.052999 2.823424 -0.261470 101
-0.037472 2.875489 -0.039151 101
-0.131102 2.923563 0.235975 98
-0.225976 2.947839 -0.210886 100
0.314934 2.752117 -0.315611 101
0.234414 2.837800 -0.055171 101
0.145811 2.872258 0.215235 101
0.054003 2.851021 -0.219914 101
-0.037243 2.895756 0.005054 101
-0.224171 2.930849 -0.164339 86
0.318086 2.775481 -0.188493 101
0.236837 2.861191 0.076683 101
0.144804 2.842860 -0.463283 101
0.054624 2.858114 -0.088338 101
-0.036911 2.908437 0.139205 101
-0.129295 2.905372 -0.303103 101
-0.226446 2.967230 -0.029086 71
0.321129 2.797818 -0.146604 101
0.236868 2.855656 0.120599 101
0.144896 2.835161 -0.312410 101
0.055285 2.867121 -0.044548 101
-0.036534 2.917937 0.184618 101
-0.128815 2.905722 -0.258048 101
-0.224429 2.947422 0.016509 53
0.325689 2.833292 -0.016924 101
0.234614 2.822651 0.256770 101
0.145348 2.834538 -0.180558 101
0.056298 2.894102 0.088440 101
-0.128532 2.910541 -0.123635 100
-0.227566 2.995355 0.155329 7
0.325248 2.825213 0.026804 101
0.144930 2.816998 -0.135983 101
0.056757 2.892393 0.132886 101
-0.034957 2.870012 -0.385519 101
-0.128280 2.916111 -0.078984 100
-0.228961 3.020519 0.203322 3
0.329359 2.856641 0.159762 101
0.232800 2.789309 -0.270007 101
0.146609 2.840212 -0.005956 101
0.057181 2.888924 0.289938 101
-0.034297 2.855732 -0.214739 100
-0.128158 2.924664 0.055699 101
-0.216565 2.863468 -0.825710 69
0.330440 2.861738 0.204474 101
0.234922 2.808965 -0.228278 101
0.147494 2.847932 0.037829 101
-0.034554 2.918588 -0.174431 101
-0.128479 2.943455 0.101341 96
-0.220240 2.918659 -0.351609 62
0.320589 2.764031 -0.273813 101
0.238470 2.833961 -0.011417 101
0.149333 2.855210 0.271776 101
0.058434 2.853976 -0.176094 101
-0.032846 2.899390 0.049600 101
-0.219245 2.925389 -0.118851 100
0.322887 2.779706 -0.232037 101
0.239947 2.845718 0.032400 101
0.058474 2.832364 -0.131122 101
-0.032429 2.906287 0.094386 101
-0.123691 2.878762 -0.361453 101
-0.220944 2.954815 -0.074486 95
0.324252 2.787317 -0.102896 101
0.241732 2.861066 0.165053 101
0.149685 2.843370 -0.269150 101
0.059935 2.879376 -0.000503 101
-0.032115 2.922785 0.230042 101
-0.124858 2.917504 -0.213932 101
-0.223438 2.995018 0.062911 52
0.328573 2.820281 -0.060468 101
0.241977 2.858161 0.209131 101
0.149949 2.839173 -0.224758 101
0.060922 2.903026 0.044094 101
-0.031666 2.927269 0.311820 1
-0.124146 2.912484 -0.168596 101
-0.221049 2.969821 0.108159 45
0.330417 2.831913 0.070676 101
0.236826 2.791667 -0.511478 101
0.151032 2.850464 -0.093695 101
0.061646 2.913870 0.178770 101
-0.030661 2.879654 -0.305730 101
-0.123848 2.917173 -0.034145 101
-0.222007 2.989567 0.247517 2
0.332126 2.842354 0.114937 101
0.237705 2.796371 -0.314298 101
0.151363 2.847546 -0.049774 101
0.062247 2.918746 0.224124 101
-0.030341 2.895965 -0.262549 101
-0.123866 2.929363 0.010746 100
0.329306 2.814062 0.246882 101
0.241528 2.835626 -0.186530 101
0.153512 2.878728 0.082539 101
0.061155 2.844841 -0.417751 101
-0.029982 2.908984 -0.129051 101
-0.123720 2.937755 0.146380 88
-0.217363 2.940594 -0.301589 84
0.239508 2.806261 -0.141197 101
0.153703 2.873106 0.126628 101
0.061853 2.854694 -0.308679 101
-0.029422 2.902632 -0.084124 101
-0.123613 2.947147 0.192302 91
-0.215712 2.925032 -0.254539 86
0.325273 2.765422 -0.578768 101
0.241189 2.811972 -0.098064 101
0.154361 2.862786 0.170328 101
0.062626 2.835178 -0.262576 101
-0.028169 2.899595 -0.039478 101
-0.121737 2.931950 0.236618 100
-0.212406 2.896843 -0.207187 100
0.324058 2.751058 -0.315611 101
0.243138 2.829038 -0.055016 101
0.155120 2.867776 0.214936 101
0.063191 2.838865 -0.218991 101
-0.027678 2.899863 0.005061 101
-0.214451 2.931576 -0.164339 97
0.327756 2.778374 -0.188762 101
0.245980 2.856406 0.076577 101
0.153589 2.830538 -0.461356 101
0.064012 2.853920 -0.088214 101
-0.027341 2.916533 0.139587 100
-0.119005 2.889884 -0.301445 101
-0.213111 2.920094 -0.028617 81
0.329468 2.788803 -0.146188 101
0.246680 2.858837 0.120768 101
0.153433 2.818785 -0.310660 101
0.064792 2.866922 -0.044548 101
-0.026858 2.918042 0.184618 100
-0.119015 2.902152 -0.257695 101
-0.214944 2.952139 0.016532 72
0.335083 2.832196 -0.016924 101
0.244660 2.829796 0.257493 101
0.154747 2.834041 -0.180558 101
0.065986 2.897896 0.088562 101
-0.119206 2.918937 -0.123974 100
-0.215027 2.960236 0.153470 61
0.334615 2.824119 0.026804 101
0.155144 2.832460 -0.136753 101
0.066349 2.892189 0.132886 101
-0.025474 2.874076 -0.386052 101
-0.118772 2.920516 -0.079092 100
-0.215193 2.969514 0.199840 53
0.338359 2.851567 0.159540 101
0.242048 2.788522 -0.270007 101
0.156027 2.839710 -0.005956 101
0.066669 2.884740 0.289538 101
-0.024861 2.859819 -0.215039 101
-0.118620 2.929069 0.055775 101
-0.206514 2.856502 -0.823499 79
0.338987 2.852702 0.203907 101
0.244235 2.808171 -0.228278 101
0.156056 2.831453 0.037617 101
-0.024842 2.914694 -0.174192 101
-0.118878 2.947859 0.101479 100
-0.210560 2.919373 -0.351609 75
0.328810 2.755047 -0.273030 101
0.247518 2.829170 -0.011400 101
0.158800 2.854699 0.271776 101
0.067803 2.849775 -0.175847 101
-0.023167 2.891484 0.049463 101
-0.206973 2.890222 -0.117394 89
0.332103 2.778620 -0.232037 101
0.250081 2.852876 0.032490 101
0.067866 2.832154 -0.131122 101
-0.022823 2.910376 0.094516 101
-0.114458 2.887087 -0.362449 101
-0.207725 2.907669 -0.073279 88
0.333493 2.786227 -0.102896 101
0.251218 2.860249 0.165053 101
0.158223 2.826954 -0.267644 101
0.069580 2.883161 -0.000503 101
-0.022056 2.875025 0.226276 101
-0.114553 2.901957 -0.212763 101
-0.209524 2.939897 0.061738 81
0.335068 2.795352 -0.059957 101
0.250754 2.849395 0.208549 101
0.159586 2.842641 -0.225073 101
0.070354 2.894811 0.043972 101
-0.021869 2.915425 0.310549 0
-0.114017 2.900909 -0.167903 101
-0.208932 2.938640 0.106997 73
0.340283 2.834772 0.070775 101
0.246082 2.790867 -0.511478 101
0.160708 2.853939 -0.093826 101
0.071309 2.913650 0.178770 101
-0.021024 2.867807 -0.304464 101
-0.113705 2.905577 -0.034005 101
-0.211810 2.986310 0.247188 50
0.340596 2.833301 0.114616 101
0.247326 2.799527 -0.314744 101
0.160354 2.839042 -0.049635 101
0.071925 2.918524 0.224124 101
-0.020509 2.864181 -0.259659 101
-0.113840 2.921763 0.010717 101
0.337207 2.801085 0.245840 101
0.249170 2.814930 -0.185222 101
0.161475 2.850260 0.081737 101
0.070294 2.832753 -0.416008 101
-0.020252 2.897080 -0.128519 101
-0.113822 2.934157 0.146181 88
-0.207051 2.933360 -0.300775 100
0.248460 2.801472 -0.140997 101
0.162550 2.860612 0.126101 101
0.070922 2.838570 -0.306959 101
-0.019742 2.894717 -0.083893 101
-0.113531 2.939564 0.191782 89
-0.202932 2.882004 -0.250735 73
0.334959 2.764266 -0.578768 101
0.249972 2.799165 -0.097647 101
0.163474 2.846282 0.169379 101
0.072252 2.822996 -0.261470 101
-0.017961 2.891676 -0.039369 101
-0.110859 2.916421 0.235332 101
-0.201978 2.893589 -0.206902 94
0.332245 2.738071 -0.314252 101
0.252678 2.824187 -0.054939 101
0.165381 2.871198 0.215235 101
0.073122 2.838626 -0.218991 101
-0.017484 2.891943 0.005047 101
-0.200587 2.880515 -0.161436 70
0.336979 2.773250 -0.188493 101
0.255244 2.847564 0.076363 101
0.163249 2.826043 -0.460713 101
0.073982 2.853678 -0.088214 101
-0.017104 2.908621 0.139205 100
-0.109207 2.898234 -0.302274 101
-0.203462 2.928801 -0.028696 88
0.341125 2.803498 -0.147020 101
0.255580 2.846018 0.120263 101
0.163726 2.826171 -0.311535 101
0.074377 2.850686 -0.044300 101
-0.016746 2.930094 0.185376 101
-0.108889 2.902549 -0.257695 101
-0.206579 2.980804 0.016688 78
0.343981 2.823071 -0.016877 101
0.254160 2.824958 0.257132 101
0.163925 2.821529 -0.179796 101
0.075872 2.889655 0.088317 101
-0.108886 2.915342 -0.123804 100
-0.205264 2.968937 0.153884 64
0.342985 2.811027 0.026691 101
0.163836 2.811960 -0.135790 101
0.076410 2.891940 0.132886 101
-0.015368 2.854326 -0.383389 101
-0.108313 2.912920 -0.078876 100
-0.203762 2.954318 0.198768 63
0.348265 2.850374 0.159540 101
0.251735 2.787664 -0.270007 101
0.166591 2.851131 -0.005982 101
0.076903 2.892448 0.290337 101
-0.014884 2.851911 -0.214439 100
-0.108591 2.933460 0.055851 100
-0.197116 2.864872 -0.825710 88
0.349366 2.855469 0.204190 101
0.252180 2.787453 -0.226664 101
0.166581 2.842873 0.037776 101
-0.014709 2.910770 -0.173953 101
-0.108356 2.940264 0.101204 100
-0.197711 2.880465 -0.346838 78
0.338326 2.753894 -0.273030 101
0.258016 2.836265 -0.011433 101
0.169132 2.862083 0.272533 101
0.077648 2.849524 -0.175847 101
-0.013195 2.895546 0.049531 101
-0.196987 2.890919 -0.117394 81
0.340714 2.769545 -0.231376 101
0.260285 2.855979 0.032536 101
0.077746 2.835897 -0.131307 101
-0.012817 2.918433 0.094776 101
-0.104497 2.887465 -0.362449 101
-0.197964 2.912357 -0.073380 76
0.342113 2.777127 -0.102602 101
0.261071 2.859366 0.165053 101
0.167961 2.826392 -0.267644 101
0.079623 2.886902 -0.000504 101
-0.012151 2.875084 0.226276 200
-0.104698 2.906321 -0.213055 101
-0.199395 2.940601 0.061738 86
0.346152 2.806089 -0.060212 101
0.261282 2.856462 0.209131 101
0.169365 2.842076 -0.225073 101
0.080535 2.902548 0.044094 101
-0.011920 2.935371 0.312667 0
-0.104752 2.921238 -0.169058 101
-0.200979 2.971247 0.108159 72
0.348549 2.821681 0.070478 101
0.255669 2.790005 -0.511478 101
0.169796 2.841398 -0.093432 101
0.081318 2.913388 0.178770 101
-0.011202 2.875817 -0.305308 101
-0.103865 2.909948 -0.034051 101
-0.200208 2.967134 0.245543 66
0.352276 2.847982 0.115259 101
0.255475 2.782828 -0.312963 101
0.171050 2.854444 -0.049914 101
0.082161 2.926233 0.224736 101
-0.010758 2.884153 -0.261465 101
-0.104100 2.930132 0.010746 101
0.347780 2.807823 0.246535 101
0.259543 2.822009 -0.185745 101
0.171478 2.853681 0.081852 101
0.080110 2.836452 -0.416589 101
-0.010313 2.893136 -0.128342 101
-0.103064 2.914567 0.145186 98
-0.195668 2.914201 -0.298740 94
0.258408 2.804584 -0.141197 101
0.172575 2.864028 0.126276 101
0.081084 2.854212 -0.308679 101
-0.009908 2.914759 -0.084472 101
-0.104036 2.955891 0.192822 100
-0.193072 2.882682 -0.250735 77
0.343152 2.751421 -0.576326 101
0.259003 2.790314 -0.097369 101
0.173408 2.845694 0.169379 101
0.082106 2.822727 -0.261470 101
-0.007856 2.887722 -0.039315 101
-0.100816 2.920775 0.235653 101
-0.191612 2.890296 -0.206617 73
0.342293 2.740839 -0.314705 101
0.263275 2.831252 -0.055094 101
0.175159 2.866622 0.214936 101
0.083147 2.842340 -0.219299 101
-0.007400 2.895986 0.005054 101
-0.192639 2.913078 -0.163222 78
0.345667 2.764137 -0.187954 101
0.265553 2.850637 0.076470 101
0.173596 2.833337 -0.461998 101
0.083590 2.841414 -0.087844 101
-0.006942 2.904667 0.139013 101
-0.099090 2.898597 -0.302274 101
-0.194027 2.941467 -0.028813 85
0.350909 2.802290 -0.147020 101
0.266627 2.857045 0.120768 101
0.172859 2.813677 -0.310223 101
0.084209 2.846411 -0.044237 101
-0.006509 2.926143 0.185123 100
-0.098350 2.890965 -0.256635 101
-0.195648 2.973524 0.016643 92
0.353335 2.817884 -0.016853 101
0.262536 2.808188 0.255687 101
0.173037 2.808986 -0.179034 101
0.085720 2.881380 0.088073 101
-0.098303 2.903722 -0.123296 100
-0.194637 2.965649 0.153677 78
0.353294 2.813781 0.026728 101
0.173897 2.815359 -0.135983 101
0.086744 2.899644 0.133253 101
-0.005405 2.854362 -0.383389 101
-0.098279 2.917277 -0.078984 100
-0.195273 2.982889 0.200644 74
0.357714 2.845179 0.159318 101
0.261464 2.786768 -0.270007 101
0.175801 2.838555 -0.005956 101
0.086879 2.888184 0.289938 101
-0.004915 2.843968 -0.213839 101
-0.097681 2.913836 0.055471 101
-0.187115 2.865543 -0.825710 92
0.359830 2.858191 0.204474 101
0.263028 2.798464 -0.227633 101
0.176007 2.834291 0.037670 101
-0.004561 2.918789 -0.174431 101
-0.098092 2.940624 0.101204 100
-0.187397 2.877174 -0.346361 90
0.348935 2.760595 -0.273813 101
0.268291 2.839330 -0.011449 101
0.179370 2.865450 0.272912 101
0.087472 2.845245 -0.175601 101
-0.003088 2.895575 0.049531 101
-0.187410 2.899566 -0.117718 81
0.347876 2.748565 -0.229723 101
0.270253 2.855053 0.032536 101
0.087522 2.831615 -0.131122 101
-0.002615 2.902469 0.094256 101
-0.094158 2.879879 -0.361453 101
-0.186767 2.897069 -0.072978 75
0.351805 2.775915 -0.102602 101
0.272558 2.874340 0.165971 101
0.178826 2.841686 -0.269150 101
0.089451 2.878610 -0.000503 101
-0.002109 2.867133 0.225648 200
-0.094034 2.890720 -0.211886 101
-0.190155 2.957242 0.062073 95
-0.275790 2.871995 -0.696139 0
0.354938 2.796929 -0.060042 101
0.269742 2.839646 0.207968 101
0.178280 2.825548 -0.223812 101
0.090291 2.890257 0.043911 101
-0.093779 2.897638 -0.167672 101
-0.189839 2.959963 0.107723 88
0.359909 2.832348 0.070775 101
0.265033 2.785178 -0.510760 101
0.180218 2.848768 -0.093695 101
0.091487 2.913086 0.178770 101
-0.001166 2.879817 -0.305730 101
-0.093449 2.902297 -0.033958 101
-0.191631 2.995662 0.247847 80
0.360702 2.834841 0.114777 101
0.265565 2.785876 -0.313408 101
0.180000 2.837864 -0.049635 101
0.091745 2.905997 0.223205 101
-0.000686 2.868238 -0.260021 101
-0.093615 2.922481 0.010717 101
0.358083 2.810545 0.246882 101
0.267495 2.801219 -0.184437 101
0.181184 2.849075 0.081737 101
0.089633 2.824288 -0.414846 101
-0.000213 2.881166 -0.127810 101
-0.092890 2.914909 0.145186 90
-0.183725 2.887067 -0.295891 89
0.267055 2.791734 -0.140597 101
0.182317 2.859420 0.126101 101
0.090793 2.845962 -0.307819 101
0.000265 2.894785 -0.083893 101
-0.093085 2.936289 0.191521 96
-0.183261 2.887315 -0.251081 90
0.353751 2.757976 -0.577954 101
0.269125 2.793372 -0.097508 101
0.183340 2.845072 0.169379 101
0.091829 2.818442 -0.261101 101
0.002214 2.875733 -0.039151 101
-0.090372 2.913139 0.235010 101
-0.182522 2.906875 -0.207756 91
0.351352 2.735685 -0.314252 101
0.272004 2.818373 -0.054861 101
0.184907 2.862013 0.214638 101
0.093068 2.842033 -0.219299 101
0.002698 2.883994 0.005034 101
-0.181970 2.905761 -0.162776 93
0.356841 2.774788 -0.188762 101
0.276657 2.861632 0.076790 101
0.183995 2.840593 -0.463283 101
0.094297 2.865080 -0.088585 101
0.003211 2.916660 0.139587 101
-0.089094 2.902902 -0.302689 101
-0.184507 2.954102 -0.028930 84
0.357118 2.773315 -0.145565 101
0.275443 2.844164 0.120263 101
0.182937 2.817024 -0.310660 101
0.094144 2.846100 -0.044237 101
0.003695 2.918164 0.184618 100
-0.088258 2.891291 -0.256635 101
-0.183029 2.938259 0.016442 87
0.364704 2.828535 -0.016924 101
0.273106 2.815185 0.256409 101
0.183878 2.824299 -0.180050 101
0.095911 2.885059 0.088195 101
-0.088167 2.904047 -0.123296 101
-0.186265 2.998206 0.155329 91
0.363113 2.812531 0.026728 101
0.183723 2.814734 -0.135983 101
0.096598 2.891336 0.132886 101
0.004553 2.850399 -0.382857 101
-0.087975 2.913605 -0.078876 100
-0.185847 2.999486 0.201715 80
0.368155 2.847874 0.159540 101
0.270804 2.781876 -0.269623 101
0.184925 2.825950 -0.005931 101
0.096426 2.871952 0.288340 101
0.005020 2.847956 -0.214139 101
-0.087269 2.906164 0.055319 101
-0.176400 2.854668 -0.822394 100
0.368781 2.849004 0.203907 101
0.272795 2.797529 -0.227633 101
0.185638 2.829668 0.037617 101
0.005589 2.898823 -0.173238 101
-0.087469 2.928961 0.100791 100
-0.178574 2.897631 -0.348747 90
0.357030 2.747518 -0.272638 101
0.275859 2.814491 -0.011352 101
0.188321 2.848912 0.271398 101
0.097266 2.840932 -0.175355 101
0.007000 2.887569 0.049395 101
-0.177044 2.896214 -0.117556 100
0.361583 2.778958 -0.232368 101
0.279826 2.850112 0.032490 101
0.097131 2.823305 -0.130752 101
0.007558 2.918452 0.094776 101
-0.084220 2.884157 -0.361951 101
-0.177627 2.913668 -0.073380 100
0.363042 2.786562 -0.103042 101
0.281808 2.865422 0.165512 101
0.188217 2.833097 -0.268397 101
0.099360 2.874283 -0.000502 101
-0.084174 2.899006 -0.212471 101
-0.180317 2.965872 0.062241 88
-0.276508 2.989096 -0.724285 3
0.363664 2.787742 -0.059871 101
0.280435 2.846627 0.208549 101
0.188407 2.828888 -0.224127 101
0.100519 2.893921 0.043972 101
-0.083779 2.901940 -0.167903 101
-0.180231 2.972578 0.108159 91
-0.269969 2.923674 -0.342317 0
0.368240 2.819179 0.070478 101
0.273981 2.776404 -0.509323 101
0.189362 2.836155 -0.093301 101
0.101237 2.900779 0.178036 101
0.008850 2.867870 -0.304464 101
-0.083203 2.898608 -0.033911 101
-0.182135 3.012230 0.249163 84
-0.271392 2.944407 -0.205210 0
0.371632 2.841490 0.115098 101
0.274897 2.780977 -0.312963 101
0.188836 2.821257 -0.049355 101
0.101749 2.901673 0.222899 101
0.009339 2.872206 -0.260382 101
-0.083527 2.926789 0.010732 100
0.368409 2.813229 0.247229 101
0.278845 2.816157 -0.185483 101
0.191663 2.856404 0.081966 101
0.099770 2.831868 -0.416008 101
0.009872 2.889142 -0.128164 101
-0.082714 2.915215 0.145186 100
-0.173646 2.887691 -0.295891 97
0.276404 2.786809 -0.140396 101
0.192565 2.862753 0.126276 101
0.100586 2.841653 -0.307389 101
0.010327 2.882771 -0.083545 101
-0.082947 2.940586 0.191782 95
-0.174136 2.903849 -0.252464 100
0.363348 2.756727 -0.577954 101
0.279640 2.800374 -0.097786 101
0.193783 2.852384 0.169853 101
0.101782 2.822086 -0.261470 101
0.012241 2.879707 -0.039206 101
-0.080562 2.925393 0.235975 101
-0.172640 2.911476 -0.208040 100
0.361922 2.742325 -0.315158 101
0.281425 2.813429 -0.054784 101
0.194879 2.861351 0.214638 101
0.102682 2.833720 -0.218684 101
0.012800 2.895967 0.005054 101
-0.171608 2.902391 -0.162552 96
0.365472 2.765614 -0.188223 101
0.285840 2.852693 0.076577 101
0.193365 2.832056 -0.461998 101
0.103855 2.852747 -0.088214 101
0.013348 2.908640 0.139205 101
-0.078751 2.895241 -0.301859 101
-0.172318 2.922785 -0.028617 95
0.368896 2.787892 -0.146396 101
0.286970 2.859091 0.120936 101
0.193316 2.824301 -0.311535 101
0.104228 2.849751 -0.044300 101
0.013943 2.930109 0.185376 100
-0.078377 2.899548 -0.257341 101
-0.171828 2.922908 0.016353 84
0.371963 2.807416 -0.016805 101
0.282149 2.806286 0.255687 101
0.193477 2.819657 -0.179796 101
0.105702 2.876715 0.087951 101
-0.077585 2.888358 -0.122617 101
-0.173445 2.958961 0.153264 90
0.372954 2.811243 0.026728 101
0.193573 2.814074 -0.135983 101
0.106864 2.894974 0.133070 101
0.014548 2.854330 -0.383389 101
-0.077564 2.905901 -0.078659 100
-0.174184 2.980197 0.200376 76
0.378131 2.846566 0.159540 101
0.280149 2.776948 -0.269239 101
0.194824 2.825284 -0.005931 101
0.106782 2.879551 0.289139 101
0.014998 2.847921 -0.214139 101
-0.077299 2.914448 0.055471 101
-0.166174 2.851430 -0.821288 95
-0.262188 2.914051 -0.112910 0
0.380875 2.863513 0.205040 101
0.283808 2.808455 -0.228601 101
0.196113 2.836979 0.037723 101
0.015821 2.910764 -0.173953 101
-0.077511 2.941239 0.101204 100
-0.168640 2.902204 -0.349224 92
0.367750 2.754136 -0.273421 101
0.286165 2.817482 -0.011368 101
0.198898 2.856177 0.272155 101
0.107263 2.840572 -0.175355 101
0.017161 2.887527 0.049395 101
-0.166392 2.888838 -0.117232 100
0.369257 2.761862 -0.231045 101
0.289460 2.845129 0.032445 101
0.107227 2.826939 -0.130937 101
0.017765 2.906414 0.094386 101
-0.073856 2.876501 -0.360955 101
-0.167133 2.910284 -0.073279 100
0.370745 2.769416 -0.102456 101
0.292316 2.868384 0.165742 101
0.198484 2.836389 -0.268773 101
0.109648 2.877912 -0.000503 101
0.018311 2.914929 0.229414 68
-0.073849 2.895297 -0.212178 101
-0.169171 2.954512 0.061990 78
-0.261487 2.939703 -0.712089 44
0.374035 2.790405 -0.059957 101
0.290888 2.849588 0.208840 101
0.198114 2.824227 -0.223812 101
0.110734 2.893548 0.043972 101
-0.073331 2.894233 -0.167441 101
-0.168597 2.953241 0.107433 89
-0.260700 2.936482 -0.343706 3
0.377137 2.809933 0.070279 101
0.283791 2.775419 -0.509323 101
0.199665 2.839456 -0.093432 101
0.111488 2.900403 0.178036 101
0.018880 2.851911 -0.302774 101
-0.072656 2.886889 -0.033771 101
-0.169450 2.977035 0.246201 90
-0.256758 2.897650 -0.201887 0
0.380086 2.828274 0.114616 101
0.284329 2.776032 -0.312518 101
0.199941 2.836529 -0.049635 101
0.112322 2.909266 0.223511 101
0.019473 2.868172 -0.260021 101
-0.073072 2.923067 0.010717 101
0.376776 2.800058 0.246187 101
0.288002 2.807210 -0.184960 101
0.200934 2.843742 0.081623 101
0.109339 2.819633 -0.414265 101
0.020104 2.889089 -0.128164 101
-0.071992 2.899514 0.144391 89
-0.164316 2.904179 -0.297519 100
0.287100 2.793760 -0.140797 101
0.202714 2.862053 0.126276 101
0.110351 2.833331 -0.306530 101
0.020548 2.882716 -0.083545 101
-0.072422 2.936871 0.191521 98
-0.163839 2.904448 -0.252464 100
0.372969 2.755442 -0.577954 101
0.288180 2.787452 -0.097369 101
0.203739 2.851690 0.169853 101
0.111790 2.825693 -0.261839 101
0.022262 2.875647 -0.039151 101
-0.069870 2.905726 0.234367 101
-0.161587 2.896126 -0.206902 100
0.372560 2.748921 -0.316063 101
0.291656 2.816407 -0.054861 101
0.204581 2.856674 0.214339 101
0.112414 2.829360 -0.218376 101
0.022845 2.887905 0.005041 101
-0.161698 2.906960 -0.162776 100
0.374587 2.760366 -0.187954 101
0.296208 2.855655 0.076683 101
0.202967 2.827426 -0.461356 101
0.113653 2.848373 -0.088091 101
0.023469 2.904581 0.139013 101
-0.068549 2.891521 -0.301445 101
-0.162114 2.923369 -0.028617 100
0.376474 2.770754 -0.145565 101
0.294883 2.838196 0.120095 101
0.202032 2.807746 -0.309785 101
0.113855 2.841377 -0.044175 101
0.024006 2.910083 0.184113 101
-0.067974 2.887854 -0.256281 101
-0.162066 2.931478 0.016398 92
0.382300 2.810064 -0.016829 101
0.291531 2.801322 0.255326 101
0.202744 2.811001 -0.179288 101
0.115904 2.880324 0.088073 101
-0.067502 2.888611 -0.122617 101
-0.161577 2.931628 0.151818 77
-0.256399 2.954004 -0.297525 4
0.382225 2.805961 0.026691 101
0.202818 2.805412 -0.135597 101
0.116162 2.874620 0.132152 101
0.024444 2.846334 -0.382324 101
-0.067513 2.910151 -0.078768 100
-0.162466 2.956877 0.198768 79
-0.253855 2.930455 -0.249584 4
0.388065 2.845229 0.159540 101
0.290668 2.783874 -0.270007 101
0.204396 2.820598 -0.005923 101
0.116511 2.871207 0.288340 101
0.024904 2.843863 -0.213839 101
-0.067125 2.914700 0.055471 101
-0.156219 2.851993 -0.821288 100
-0.254425 2.942824 -0.113990 0
0.388709 2.846353 0.203907 101
0.292365 2.795551 -0.227633 101
0.204277 2.812343 0.037405 101
0.025839 2.894720 -0.172999 101
-0.067152 2.937495 0.101066 100
-0.157859 2.890878 -0.347793 92
-0.255422 2.960200 -0.068982 0
0.377902 2.756779 -0.273813 101
0.296416 2.820444 -0.011384 101
0.209157 2.859437 0.272533 101
0.117507 2.848158 -0.175847 101
0.027316 2.895447 0.049531 101
-0.156954 2.901374 -0.117718 101
0.379980 2.768455 -0.231707 101
0.300227 2.852057 0.032536 101
0.117921 2.846509 -0.131861 101
0.027949 2.910331 0.094516 101
-0.063903 2.880709 -0.361453 101
-0.157403 2.918835 -0.073480 101
0.382042 2.779986 -0.102896 101
0.301071 2.855432 0.165053 101
0.208092 2.831707 -0.268397 101
0.119028 2.861526 -0.000500 101
0.028486 2.914847 0.229414 91
-0.063566 2.887560 -0.211594 101
-0.157569 2.931124 0.061487 89
-0.247914 2.901854 -0.702707 79
0.383228 2.785120 -0.059871 101
0.299576 2.836653 0.207968 101
0.207971 2.823519 -0.223812 101
0.120500 2.885152 0.043851 101
-0.063054 2.886487 -0.166979 101
-0.157431 2.937845 0.106852 89
-0.249098 2.921539 -0.341853 32
0.386397 2.804638 0.070180 101
0.293064 2.770498 -0.508605 101
0.208986 2.830767 -0.093170 101
0.121277 2.892018 0.177546 101
0.028956 2.863760 -0.304041 101
-0.062665 2.891123 -0.033817 101
-0.158419 2.965666 0.245213 100
-0.249687 2.934313 -0.204379 0
0.388864 2.819011 0.114295 101
0.292761 2.763164 -0.311182 101
0.208661 2.819860 -0.049355 101
0.122141 2.900886 0.222899 101
0.029444 2.864103 -0.259659 101
-0.062696 2.915306 0.010688 101
-0.246722 2.905297 -0.157401 0
0.387638 2.806621 0.246882 101
0.297800 2.806188 -0.184960 101
0.211155 2.847011 0.081737 101
0.119850 2.835051 -0.416589 101
0.030064 2.877013 -0.127633 101
-0.061956 2.903742 0.144590 96
-0.154178 2.904735 -0.297519 100
0.296428 2.788768 -0.140597 101
0.211518 2.845387 0.125573 101
0.120409 2.836902 -0.306959 101
0.030610 2.882627 -0.083545 101
-0.062255 2.941097 0.191782 93
-0.153910 2.908982 -0.252810 100
0.382046 2.750245 -0.577140 101
0.299608 2.802329 -0.097925 101
0.212796 2.839016 0.169142 101
0.121652 2.825286 -0.261839 101
0.032434 2.887550 -0.039315 101
-0.059973 2.917911 0.235332 101
-0.151685 2.900657 -0.207187 100
0.381606 2.743667 -0.315611 101
0.300633 2.807419 -0.054706 101
0.215448 2.867876 0.215235 101
0.122807 2.840903 -0.219299 101
0.032926 2.887808 0.005041 101
-0.152173 2.919471 -0.163445 100
0.383670 2.755089 -0.187685 101
0.304895 2.842676 0.076363 101
0.212539 2.822764 -0.460713 101
0.123421 2.843964 -0.087967 101
0.033608 2.904481 0.139013 101
-0.058375 2.887765 -0.301030 101
-0.151494 2.915928 -0.028539 100
0.388350 2.785248 -0.146396 101
0.305642 2.845097 0.120431 101
0.212131 2.810989 -0.310223 101
0.123947 2.844958 -0.044237 101
0.034351 2.925948 0.185123 100
-0.057893 2.888073 -0.256281 101
-0.151832 2.932026 0.016398 91
0.394318 2.824558 -0.016924 101
0.300882 2.796326 0.254965 101
0.213459 2.822218 -0.180050 101
0.125783 2.875907 0.087951 101
-0.057419 2.888829 -0.122617 101
-0.151137 2.928185 0.151611 89
-0.245425 2.946948 -0.296727 15
0.391464 2.800648 0.026653 101
0.212610 2.804687 -0.135597 101
0.126546 2.882181 0.132519 101
0.034379 2.846231 -0.382324 101
-0.057118 2.898376 -0.078443 97
-0.150709 2.929526 0.196893 85
-0.243294 2.927352 -0.249246 19
0.397441 2.839902 0.159318 101
0.299956 2.778883 -0.269623 101
0.214241 2.819867 -0.005923 101
0.126532 2.870783 0.288340 101
0.034782 2.839770 -0.213539 101
-0.056872 2.910918 0.055395 101
-0.145673 2.841004 -0.817972 100
-0.241177 2.907844 -0.112602 1
0.399196 2.848931 0.204190 101
0.301265 2.786586 -0.226987 101
0.215307 2.827565 0.037617 101
0.035894 2.890620 -0.172760 101
-0.056511 2.917727 0.100379 100
-0.148375 2.903311 -0.349224 92
-0.247726 2.992956 -0.069725 1
0.386968 2.751502 -0.273421 101
0.305396 2.811439 -0.011352 101
0.218528 2.850749 0.271776 101
0.126555 2.827789 -0.174616 101
0.037319 2.887336 0.049395 101
-0.146826 2.901904 -0.117718 101
0.389641 2.767112 -0.231707 101
0.310181 2.850992 0.032536 101
0.127319 2.834105 -0.131307 101
0.038108 2.910216 0.094516 101
-0.053921 2.884883 -0.361951 101
-0.147818 2.931348 -0.073782 100
0.391744 2.778635 -0.102896 101
0.311036 2.854363 0.165053 101
0.217364 2.823022 -0.267644 101
0.129016 2.861093 -0.000500 101
0.038660 2.914730 0.229414 55
-0.053634 2.895742 -0.212178 101
-0.147135 2.927662 0.061403 100
-0.237466 2.898826 -0.701769 72
0.395183 2.799605 -0.060212 101
0.310342 2.843522 0.208549 101
0.218132 2.826751 -0.224127 101
0.130390 2.880718 0.043790 101
-0.053197 2.898667 -0.167672 101
-0.147975 2.954346 0.107433 100
-0.240840 2.946150 -0.344633 41
0.397864 2.815151 0.070478 101
0.303160 2.773370 -0.509323 101
0.219791 2.841979 -0.093564 101
0.131372 2.891577 0.177546 101
0.038952 2.863641 -0.304041 101
-0.052719 2.899323 -0.033911 101
-0.147271 2.950275 0.243897 100
-0.238469 2.923235 -0.203548 19
0.398701 2.817637 0.114295 101
0.304135 2.777931 -0.312963 101
0.219430 2.831076 -0.049565 101
0.132085 2.896458 0.222593 101
0.039496 2.867966 -0.260021 101
-0.052447 2.911508 0.010673 101
-0.240793 2.957894 -0.160204 13
0.395197 2.789469 0.245493 101
0.308028 2.809099 -0.185222 101
0.220782 2.842270 0.081623 101
0.129202 2.822755 -0.414846 101
0.040218 2.884882 -0.127987 101
-0.051962 2.911930 0.144988 99
-0.144038 2.905256 -0.297519 101
-0.244197 3.006004 -0.023687 2
0.305725 2.783745 -0.140396 101
0.221139 2.840647 0.125397 101
0.130493 2.840437 -0.307389 101
0.040785 2.890499 -0.083777 101
-0.051776 2.929323 0.191001 91
-0.143361 2.901541 -0.252118 101
-0.240457 2.966186 0.022334 1
0.391099 2.745016 -0.576326 101
0.307641 2.785371 -0.097369 101
0.222400 2.834275 0.168905 101
0.131151 2.816886 -0.261101 101
0.042286 2.871423 -0.039097 101
-0.049303 2.890198 0.233081 101
-0.141356 2.897184 -0.206902 101
-0.240818 2.993544 0.068677 1
0.390624 2.738384 -0.315158 101
0.310876 2.810327 -0.054784 101
0.225462 2.867106 0.215235 101
0.131983 2.824522 -0.218069 101
0.043070 2.891675 0.005047 100
-0.141589 2.912007 -0.162999 101
0.393850 2.757684 -0.187954 101
0.316139 2.853517 0.076683 101
0.223013 2.829876 -0.461998 101
0.133537 2.847510 -0.088091 101
0.043628 2.896356 0.138631 101
-0.048360 2.891930 -0.301445 101
-0.141506 2.920434 -0.028578 101
0.395242 2.764104 -0.145357 101
0.316011 2.847985 0.120599 101
0.221628 2.806268 -0.309785 101
0.133876 2.844508 -0.044237 101
0.044381 2.913836 0.184366 101
-0.047878 2.892242 -0.256635 101
-0.141405 2.928542 0.016375 100
0.403038 2.815246 -0.016877 101
0.310637 2.795259 0.254965 101
0.222675 2.813497 -0.179542 101
0.135251 2.863470 0.087584 101
-0.047273 2.885016 -0.122448 101
-0.141494 2.940665 0.152231 91
-0.235774 2.955721 -0.297525 69
0.401798 2.803225 0.026691 101
0.222392 2.803928 -0.135597 101
0.136220 2.873740 0.132152 101
0.044122 2.834202 -0.380727 101
-0.047072 2.902556 -0.078551 101
-0.141827 2.957938 0.198768 87
-0.233398 2.932156 -0.249584 67
0.406774 2.834545 0.159097 101
0.308763 2.769907 -0.268855 101
0.223756 2.815115 -0.005915 101
0.136542 2.870324 0.288340 101
0.044684 2.839632 -0.213539 101
-0.046592 2.903101 0.055243 101
-0.135581 2.837654 -0.816867 87
-0.231035 2.908667 -0.112602 27
0.407990 2.839623 0.203624 101
0.312305 2.797405 -0.227956 101
0.224845 2.822810 0.037564 101
0.045971 2.890477 -0.172760 101
-0.046275 2.913909 0.100241 100
-0.138441 2.907777 -0.349701 92
-0.232867 2.937992 -0.068425 62
0.397118 2.754077 -0.273813 101
0.316078 2.818308 -0.011384 101
0.227820 2.842031 0.271019 101
0.137174 2.843282 -0.175601 101
0.047376 2.887189 0.049395 101
-0.136529 2.898406 -0.117556 101
-0.232683 2.954592 0.158954 1
0.400414 2.773629 -0.232368 101
0.321446 2.861819 0.032672 101
0.137380 2.837635 -0.131492 101
0.048241 2.910066 0.094516 101
-0.043936 2.889021 -0.362449 101
-0.137047 2.919862 -0.073480 101
-0.235719 2.999588 0.207760 0
0.402558 2.785167 -0.103189 101
0.320971 2.853263 0.165053 101
0.228148 2.834157 -0.268773 101
0.139946 2.880603 -0.000503 101
0.048873 2.918565 0.229728 93
-0.043613 2.899900 -0.212471 101
-0.137504 2.940141 0.061654 100
-0.229805 2.930648 -0.709274 59
0.404351 2.794255 -0.060127 101
0.322022 2.858282 0.209713 101
0.228289 2.829949 -0.224443 101
0.140998 2.892231 0.043972 101
-0.043050 2.894842 -0.167441 101
-0.137135 2.942864 0.106997 100
-0.230586 2.946970 -0.344633 73
0.408229 2.817707 0.070577 101
0.313690 2.780118 -0.510760 101
0.229033 2.833227 -0.093301 101
0.141821 2.899078 0.178036 101
0.048643 2.847580 -0.302352 101
-0.042573 2.895489 -0.033864 101
-0.136451 2.938823 0.242909 101
-0.227055 2.908133 -0.202441 67
0.409646 2.824144 0.114616 101
0.314241 2.780806 -0.313408 101
0.228629 2.822324 -0.049425 101
0.142353 2.899965 0.222899 101
0.049471 2.867811 -0.260021 101
-0.042379 2.915673 0.010688 101
-0.228642 2.934821 -0.158911 71
0.407185 2.803852 0.246882 101
0.318242 2.811977 -0.185483 101
0.230986 2.845470 0.081737 101
0.138822 2.818336 -0.414265 101
0.050248 2.884725 -0.127987 101
-0.041722 2.904104 0.144590 96
-0.133385 2.893814 -0.296298 101
-0.230023 2.958981 -0.023310 34
0.314949 2.778696 -0.140196 101
0.230364 2.831896 0.125045 101
0.140170 2.835994 -0.306959 101
0.050621 2.878346 -0.083429 101
-0.041537 2.925494 0.190741 100
-0.133275 2.902022 -0.252118 101
-0.231692 2.986943 0.022485 40
0.401244 2.747509 -0.577140 101
0.316909 2.780308 -0.097230 101
0.232292 2.833481 0.168905 101
0.140585 2.808455 -0.260364 101
0.052236 2.867259 -0.039043 101
-0.039377 2.902312 0.234046 101
-0.131242 2.897660 -0.206902 101
-0.230674 2.998354 0.068768 25
0.399605 2.733071 -0.314705 101
0.321137 2.813198 -0.054861 101
0.235468 2.866302 0.215235 101
0.142241 2.832010 -0.218684 101
0.053091 2.887508 0.005041 101
-0.131603 2.916473 -0.163222 100
-0.226084 2.945176 0.112959 4
0.404052 2.760241 -0.188223 101
0.323827 2.832533 0.076149 101
0.232242 2.821211 -0.460713 101
0.143274 2.843033 -0.087967 101
0.053737 2.896186 0.138631 101
-0.038107 2.880147 -0.300201 101
-0.130952 2.912919 -0.028500 101
-0.228301 2.980616 0.252599 0
0.406046 2.770612 -0.145773 101
0.325041 2.838923 0.120263 101
0.232076 2.813402 -0.310660 101
0.143804 2.844023 -0.044237 101
0.054552 2.913663 0.184366 101
-0.037782 2.892391 -0.256635 101
-0.131540 2.937010 0.016420 100
0.411701 2.805907 -0.016829 101
0.322207 2.809989 0.256409 101
0.232166 2.808724 -0.179288 101
0.145651 2.870966 0.087829 101
-0.037151 2.881167 -0.122278 101
-0.131407 2.945131 0.152438 98
-0.222126 2.912873 -0.293132 74
0.411581 2.801805 0.026691 101
0.231519 2.795171 -0.135212 101
0.146251 2.873247 0.132152 101
0.054317 2.849885 -0.382857 101
-0.036940 2.902702 -0.078551 101
-0.130969 2.946454 0.197965 99
-0.224068 2.944875 -0.250599 81
0.416666 2.833108 0.159097 101
0.317065 2.756946 -0.267702 101
0.232919 2.806345 -0.005898 101
0.146155 2.861880 0.287541 101
0.054520 2.835470 -0.213240 101
-0.036408 2.899247 0.055167 101
-0.125505 2.834270 -0.815761 100
-0.222999 2.937355 -0.113681 77
0.417319 2.834234 0.203341 101
0.321155 2.788377 -0.227310 101
0.234698 2.822008 0.037564 101
0.056292 2.902275 -0.173476 101
-0.036252 2.926045 0.100654 101
-0.128290 2.908242 -0.349701 92
-0.223215 2.946762 -0.068611 100
0.405565 2.744798 -0.273030 101
0.324995 2.809241 -0.011352 101
0.238071 2.845187 0.271398 101
0.146479 2.830824 -0.174862 101
0.057295 2.879009 0.049258 101
-0.126063 2.890879 -0.117232 101
-0.225964 3.003183 0.161525 24
0.406009 2.744611 -0.230054 101
0.328211 2.832867 0.032354 101
0.146663 2.825167 -0.130937 101
0.058158 2.897888 0.094127 101
-0.033525 2.861377 -0.358964 101
-0.126681 2.916328 -0.073380 101
-0.224052 2.984475 0.206658 15
0.411106 2.775836 -0.102896 101
0.331389 2.856092 0.165283 101
0.237040 2.821438 -0.267644 101
0.149168 2.864118 -0.000501 101
0.058899 2.910403 0.229101 78
-0.033537 2.904023 -0.212763 101
-0.127067 2.936607 0.061571 100
-0.219283 2.927554 -0.708336 63
0.414689 2.796782 -0.060212 101
0.331537 2.853178 0.209422 101
0.238166 2.829135 -0.224443 101
0.151719 2.903704 0.044154 101
-0.032945 2.894975 -0.167441 101
-0.127034 2.947319 0.107142 100
-0.220002 2.943795 -0.344169 88
0.416300 2.804399 0.070279 101
0.321573 2.763372 -0.507886 101
0.238921 2.832410 -0.093301 101
0.151313 2.886604 0.177301 101
0.058582 2.847393 -0.302352 101
-0.032331 2.883622 -0.033724 101
-0.126876 2.955212 0.244226 101
-0.218683 2.932784 -0.204102 69
0.420089 2.826650 0.114777 101
0.324406 2.783641 -0.313853 101
0.238480 2.821508 -0.049425 101
0.152266 2.895468 0.222593 101
0.059398 2.863638 -0.259659 101
-0.032157 2.911803 0.010673 100
-0.218989 2.943568 -0.159342 100
0.414623 2.786648 0.245493 101
0.326668 2.798955 -0.184698 101
0.239230 2.824726 0.081165 101
0.147825 2.802026 -0.411941 101
0.059983 2.868551 -0.127278 101
-0.031498 2.896242 0.144192 96
-0.122437 2.874384 -0.294263 101
-0.220582 2.971733 -0.023405 88
0.324183 2.773612 -0.139996 101
