# This PCD file was generated using the MATLAB® pcwrite function
# from Computer Vision Toolbox®.
# .PCD v.7 - Point Cloud Data file format
VERSION .7
FIELDS x y z intensity
SIZE 4 4 4 1
TYPE F F F U
COUNT 1 1 1 1
WIDTH 1490
HEIGHT 1
VIEWPOINT 0 0 0 1 0 0 0
POINTS 1490
DATA ascii
-0.367750 3.556547 -0.179251 100
-0.490608 3.619365 0.160747 23
-0.572788 3.408066 -0.373596 101
-0.695564 3.461321 -0.102316 84
-0.832056 3.552105 0.237840 57
-0.892128 3.329597 -0.299152 101
-1.024622 3.392547 0.026597 100
-0.366562 3.567051 -0.124594 100
-0.572176 3.417612 -0.320845 100
-0.696749 3.478579 -0.048299 70
-0.831607 3.560301 0.294808 80
-0.893169 3.341914 -0.246746 100
-1.023397 3.396231 0.081114 86
-0.248233 3.504489 -0.400287 101
-0.367746 3.584509 -0.069816 100
-0.575636 3.441833 -0.269126 92
-0.703292 3.514313 0.006255 61
-0.837412 3.587880 0.418471 38
-0.902755 3.380058 -0.195599 100
-1.024651 3.402464 0.135887 94
-0.251775 3.562994 -0.241001 100
-0.460712 3.423687 -0.562237 101
-0.583078 3.489938 -0.109341 63
-0.710515 3.553516 0.173432 73
-0.782532 3.355294 -0.359080 101
-0.907678 3.400785 -0.034403 100
-1.044162 3.469365 0.306150 64
-0.466041 3.467701 -0.385043 100
-0.587966 3.522840 -0.055483 85
-0.720261 3.605409 0.232604 69
-0.789457 3.387564 -0.308598 100
-0.916412 3.435830 0.019860 86
-0.469978 3.501458 -0.224745 88
-0.595060 3.569045 0.110549 79
-0.794899 3.413514 -0.148735 99
-0.933145 3.500932 0.187345 78
-0.987632 3.285541 -0.344251 101
-0.472446 3.524345 -0.171423 94
-0.599362 3.598581 0.167576 71
-0.667553 3.347434 -0.458470 101
-0.800186 3.438837 -0.095538 71
-0.937869 3.521035 0.244576 78
-0.988484 3.290383 -0.291519 101
-0.357069 3.509507 -0.340293 101
-0.478239 3.572121 -0.007548 61
-0.676542 3.395483 -0.260326 94
-0.807907 3.474666 0.067874 80
-0.833587 3.131648 -0.931825 101
-1.001087 3.334371 -0.134351 100
-0.357367 3.518319 -0.286397 101
-0.476007 3.560002 0.047645 67
-0.692263 3.477438 -0.211894 100
-0.818752 3.523998 0.124442 57
-0.879004 3.304506 -0.410767 89
-1.005598 3.351444 -0.081238 83
-0.244425 3.526466 -0.347848 101
-0.571032 3.446372 -0.215499 79
-0.696312 3.507020 0.061162 86
-0.806772 3.480398 -1.270910 20
-0.890097 3.353022 -0.140549 100
-1.029094 3.436048 0.192373 92
-0.244446 3.535398 -0.293847 85
-0.573536 3.465096 -0.162561 88
-0.700902 3.533252 0.116977 74
-0.768419 3.317481 -0.427172 101
-0.899210 3.389648 -0.088156 95
-1.038990 3.471214 0.250194 83
-0.464137 3.493593 -0.333143 94
-0.587922 3.555723 -0.000629 84
-0.714798 3.606477 0.289357 61
-0.780806 3.373540 -0.253679 100
-0.914098 3.448110 0.074723 91
-0.951667 3.181421 -0.801217 101
-0.461545 3.478567 -0.277401 89
-0.589211 3.567250 0.054905 72
-0.721641 3.644221 0.395706 65
-0.787322 3.404304 -0.202084 89
-0.921306 3.477661 0.130662 75
-0.978670 3.273700 -0.398366 101
-0.343509 3.421961 -0.627854 101
-0.469501 3.543103 -0.117315 74
-0.600574 3.639852 0.226279 60
-0.669331 3.383043 -0.366116 101
-0.802420 3.472245 -0.041675 80
-0.938608 3.545380 0.302814 100
-0.990378 3.314894 -0.240104 101
-0.350796 3.500474 -0.393986 100
-0.472234 3.568340 -0.062829 77
-0.601920 3.651836 0.284135 61
-0.675953 3.419537 -0.315997 94
-0.803685 3.480388 0.013092 80
-0.991901 3.322031 -0.187157 100
-0.354026 3.538704 -0.233097 77
-0.474132 3.587320 0.103603 75
-0.556815 3.381728 -0.503161 101
-0.684449 3.465584 -0.156704 96
-0.811992 3.519062 0.179792 51
-0.874697 3.308472 -0.350023 100
-1.013342 3.395924 -0.027834 89
-0.356127 3.565760 -0.179651 87
-0.559597 3.402197 -0.372736 101
-0.685026 3.471574 -0.102548 100
-0.820549 3.558877 0.238101 64
-0.876429 3.317279 -0.297769 101
-1.008201 3.380771 0.026477 100
-0.352529 3.552397 -0.124038 100
-0.557023 3.399936 -0.319001 100
-0.681515 3.465292 -0.048082 93
-0.818281 3.559296 0.294486 69
-0.880482 3.341153 -0.246461 100
-1.008115 3.388283 0.080839 86
-0.236266 3.509300 -0.400739 101
-0.356414 3.597710 -0.070049 88
-0.565550 3.455629 -0.270048 86
-0.692563 3.524597 0.006269 60
-0.827553 3.602402 0.419826 35
-0.890950 3.383188 -0.195599 97
-1.017325 3.421345 0.136498 98
-0.239604 3.567833 -0.241270 36
-0.448758 3.425275 -0.562237 101
-0.570892 3.491952 -0.109341 72
-0.700416 3.567736 0.174006 75
-0.770815 3.358006 -0.359080 100
-0.901909 3.427141 -0.034638 97
-1.029775 3.465348 0.305476 78
-0.452386 3.457479 -0.383731 100
-0.575020 3.520924 -0.055421 70
-0.706903 3.603984 0.232351 69
-0.774955 3.378649 -0.307537 101
-0.906448 3.446745 0.019905 89
-0.459304 3.514952 -0.225507 90
-0.583886 3.578992 0.110794 76
-0.785657 3.427954 -0.149244 99
-0.922950 3.511895 0.187759 78
-0.973892 3.281337 -0.343452 101
-0.459107 3.518049 -0.171038 85
-0.587440 3.604595 0.167759 68
-0.655865 3.349744 -0.458470 101
-0.786392 3.433814 -0.095322 71
-0.927600 3.532008 0.245112 85
-0.975859 3.289992 -0.291181 101
-0.344816 3.510732 -0.340293 101
-0.465767 3.573768 -0.007548 69
-0.666216 3.405653 -0.260926 100
-0.796665 3.481363 0.067950 82
-0.822651 3.134539 -0.931825 101
-0.990578 3.341677 -0.134505 100
-0.347029 3.539385 -0.288012 101
-0.464610 3.569574 0.047751 69
-0.681652 3.487671 -0.212371 100
-0.809120 3.538525 0.124854 57
-0.869478 3.315237 -0.411722 89
-1.000708 3.377939 -0.081795 84
-0.232898 3.539214 -0.349024 101
-0.558999 3.448345 -0.215499 85
-0.687126 3.525131 0.061435 85
-0.797971 3.497890 -1.276273 17
-0.884459 3.379308 -0.141520 98
-1.021624 3.454940 0.193230 100
-0.232887 3.548162 -0.294839 89
-0.561437 3.467076 -0.162561 88
-0.693914 3.563146 0.117885 77
-0.757716 3.324013 -0.427670 101
-0.887372 3.392766 -0.088156 100
-1.032521 3.493954 0.251571 85
-0.450918 3.487293 -0.332391 100
-0.576784 3.565650 -0.000630 73
-0.702966 3.612865 0.289671 71
-0.774341 3.399583 -0.255432 96
-0.902056 3.451280 0.074723 95
-0.943860 3.195911 -0.804032 101
-0.450932 3.492021 -0.278347 84
-0.578032 3.577182 0.055026 67
-0.709675 3.650622 0.396129 68
-0.771890 3.391456 -0.201160 93
-0.910171 3.484723 0.130807 86
-0.967237 3.277096 -0.398366 101
-0.333080 3.438806 -0.630727 101
-0.456108 3.536791 -0.117053 71
-0.585320 3.626161 0.225300 56
-0.659034 3.393168 -0.366961 101
-0.788521 3.467224 -0.041582 93
-0.924213 3.540920 0.302156 101
-0.976543 3.310677 -0.239550 101
-0.338192 3.497720 -0.393541 100
-0.458754 3.562033 -0.062689 77
-0.590439 3.661789 0.284747 60
-0.663254 3.417965 -0.315636 100
-0.791531 3.483172 0.013092 69
-0.978041 3.317811 -0.186725 100
-0.342438 3.547864 -0.233620 78
-0.462117 3.592919 0.103717 75
-0.546895 3.395372 -0.504904 100
-0.672348 3.467952 -0.156704 100
-0.805011 3.545250 0.180986 62
-0.865151 3.319206 -0.350837 101
-1.003743 3.407114 -0.027897 89
-0.344061 3.570958 -0.179851 90
-0.550877 3.423761 -0.374886 101
-0.673664 3.477869 -0.102664 92
-0.808121 3.561720 0.238101 54
-0.868862 3.335744 -0.299152 101
-0.998654 3.391944 0.026537 93
-0.340888 3.561564 -0.124316 100
-0.546412 3.409725 -0.319739 97
-0.670931 3.475504 -0.048191 76
-0.805852 3.562131 0.294486 57
-0.873830 3.363515 -0.247884 100
-0.998535 3.399456 0.081022 82
-0.224015 3.510103 -0.400739 101
-0.554115 3.461520 -0.270356 92
-0.679498 3.523065 0.006262 63
-0.816726 3.613022 0.420729 44
-0.877128 3.378547 -0.195152 100
-1.004250 3.421040 0.136345 100
-0.436300 3.422904 -0.561595 101
-0.560593 3.505767 -0.109712 75
-0.690226 3.581929 0.174579 69
-0.765224 3.387841 -0.361983 100
-0.888936 3.426397 -0.034599 97
-1.030014 3.510992 0.309181 89
-0.442825 3.478758 -0.385919 100
-0.561465 3.515011 -0.055297 70
-0.693564 3.602510 0.232099 65
-0.765788 3.392993 -0.308598 100
-0.895415 3.453760 0.019927 96
-0.446529 3.512574 -0.225253 75
-0.572019 3.584957 0.110916 76
-0.774566 3.434574 -0.149413 91
-0.909684 3.511228 0.187552 67
-0.963551 3.288536 -0.343852 101
-0.449340 3.539448 -0.172001 77
-0.576741 3.618462 0.168310 56
-0.644168 3.352013 -0.458470 101
-0.777038 3.448240 -0.095646 71
-0.915266 3.535224 0.245112 71
-0.965489 3.297204 -0.291519 101
-0.332935 3.515878 -0.340677 101
-0.456308 3.599182 -0.007598 65
-0.655829 3.415792 -0.261526 100
-0.787144 3.495828 0.068178 76
-0.815556 3.152278 -0.936246 101
-0.982275 3.356623 -0.134968 100
-0.335048 3.544544 -0.288335 101
-0.454156 3.587046 0.047963 67
-0.670226 3.493951 -0.212610 100
-0.795885 3.537428 0.124717 55
-0.856907 3.314407 -0.411245 89
-0.987789 3.377573 -0.081702 83
-0.221037 3.547952 -0.349807 100
-0.549459 3.466048 -0.216484 88
-0.674817 3.527508 0.061435 85
-0.792359 3.530071 -1.286997 12
-0.870661 3.374634 -0.141196 100
-1.008438 3.454651 0.193016 97
-0.220747 3.552933 -0.295170 85
-0.551206 3.480855 -0.163116 90
-0.680722 3.561620 0.117756 80
-0.747845 3.334383 -0.428666 101
-0.878519 3.407459 -0.088458 99
-1.018083 3.489876 0.251020 85
-0.440729 3.504650 -0.333896 82
-0.561834 3.551839 -0.000628 82
-0.691098 3.619214 0.289985 67
-0.762469 3.402266 -0.255432 96
-0.891001 3.458281 0.074806 100
-0.931610 3.195453 -0.803093 101
-0.439733 3.501486 -0.278977 87
-0.567414 3.591029 0.055208 65
-0.696182 3.649170 0.395706 72
-0.764410 3.413614 -0.202315 92
-0.899995 3.495621 0.131097 83
-0.955792 3.280452 -0.398366 101
-0.320708 3.436029 -0.630009 101
-0.445749 3.554228 -0.117578 66
-0.575771 3.647900 0.226524 61
-0.644207 3.379819 -0.365272 101
-0.776413 3.469955 -0.041582 80
-0.911847 3.544125 0.302156 101
-0.964981 3.314065 -0.239550 101
-0.326718 3.506796 -0.394431 100
-0.445820 3.559644 -0.062619 81
-0.574548 3.644130 0.283217 48
-0.649083 3.408519 -0.314553 100
-0.778495 3.482011 0.013077 72
-0.964221 3.313534 -0.186294 101
-0.330052 3.549038 -0.233620 78
-0.535040 3.397261 -0.504904 101
-0.658745 3.462426 -0.156350 100
-0.790018 3.536342 0.180389 62
-0.854549 3.326060 -0.351244 101
-0.991844 3.410597 -0.027897 84
-0.330486 3.560203 -0.179251 91
-0.537068 3.413877 -0.373596 101
-0.661520 3.480199 -0.102664 84
-0.798292 3.576206 0.238881 52
-0.854240 3.327177 -0.298115 101
-0.987924 3.399250 0.026567 88
-0.329922 3.578655 -0.124871 91
-0.536356 3.423417 -0.320845 100
-0.661773 3.493544 -0.048408 89
-0.794279 3.568814 0.294808 54
-0.863073 3.370409 -0.248169 100
-0.987777 3.406761 0.081114 84
-0.211522 3.506897 -0.400287 101
-0.540795 3.455553 -0.269741 97
-0.665708 3.517555 0.006248 68
-0.805834 3.623610 0.421631 52
-0.862359 3.369981 -0.194482 100
-0.990078 3.416847 0.136040 91
-0.425806 3.436160 -0.563522 101
-0.547735 3.503752 -0.109589 88
-0.677719 3.584316 0.174579 70
-0.751668 3.382724 -0.361153 100
-0.875979 3.425604 -0.034560 97
-1.016644 3.510737 0.308844 92
-0.430679 3.480283 -0.385919 101
-0.553511 3.544611 -0.055732 70
-0.681725 3.608831 0.232351 73
-0.754803 3.399535 -0.308951 92
-0.883354 3.456865 0.019927 76
-0.433286 3.506188 -0.224745 82
-0.558886 3.582981 0.110794 70
-0.761707 3.433355 -0.149244 94
-0.898410 3.518253 0.187759 75
-0.950961 3.288056 -0.343452 101
-0.436493 3.537030 -0.171808 74
-0.561031 3.600712 0.167392 64
-0.633932 3.362032 -0.459535 101
-0.768458 3.466547 -0.096079 65
-0.904894 3.546132 0.245648 78
-0.958400 3.315870 -0.292872 101
-0.321383 3.524949 -0.341445 101
-0.442274 3.588843 -0.007573 61
-0.644640 3.421981 -0.261826 96
-0.774936 3.498554 0.068178 80
-0.804547 3.155106 -0.936246 101
-0.970552 3.360032 -0.134968 100
-0.322673 3.545692 -0.288335 101
-0.440655 3.580670 0.047857 66
-0.655810 3.484497 -0.211894 95
-0.778349 3.516765 0.123892 53
-0.846313 3.321226 -0.411722 89
-0.973774 3.373316 -0.081516 97
-0.207950 3.536780 -0.348632 101
-0.538579 3.475835 -0.216977 91
-0.661024 3.521980 0.061299 91
-0.859861 3.381526 -0.141358 88
-0.994161 3.450474 0.192587 95
-0.207877 3.545722 -0.294509 52
-0.537830 3.474860 -0.162746 84
-0.667548 3.560045 0.117626 80
-0.736202 3.336973 -0.428666 101
-0.868589 3.418257 -0.088659 93
-1.003687 3.485739 0.250469 90
-0.428010 3.502215 -0.333520 87
-0.550044 3.557731 -0.000628 87
-0.679195 3.625524 0.290299 63
-0.749730 3.401011 -0.255140 97
-0.879908 3.465246 0.074890 93
-0.920450 3.198685 -0.803093 101
-0.427508 3.503000 -0.278977 82
-0.551823 3.573224 0.054905 68
-0.684172 3.655488 0.396129 65
-0.753348 3.420162 -0.202546 84
-0.884838 3.487118 0.130662 86
-0.943237 3.279950 -0.397902 101
-0.310472 3.456724 -0.633601 99
-0.435275 3.571636 -0.118103 69
-0.564251 3.657779 0.227014 55
-0.637523 3.409416 -0.368228 101
-0.767735 3.488269 -0.041769 77
-0.901430 3.555015 0.302814 101
-0.958917 3.336589 -0.240935 101
-0.315185 3.515833 -0.395322 96
-0.434842 3.573089 -0.062829 73
-0.640107 3.426428 -0.315997 100
-0.766336 3.484707 0.013077 82
-0.955957 3.328397 -0.186941 101
-0.318017 3.554144 -0.233882 78
-0.522576 3.395196 -0.504323 101
-0.649587 3.480417 -0.157059 100
-0.776812 3.535176 0.180190 60
-0.843911 3.332880 -0.351651 101
-0.976622 3.402504 -0.027803 92
-0.319123 3.573273 -0.179851 87
-0.528774 3.439315 -0.376176 100
-0.647902 3.474626 -0.102432 89
-0.785804 3.578971 0.238881 53
-0.847508 3.349455 -0.299844 101
-0.978258 3.410367 0.026627 97
-0.318053 3.579730 -0.124871 67
-0.526208 3.433050 -0.321582 100
-0.650184 3.495719 -0.048408 98
-0.780733 3.563639 0.294165 50
-0.849938 3.365516 -0.247599 100
-0.977575 3.413862 0.081205 95
-0.200569 3.519483 -0.401645 101
-0.531144 3.469154 -0.270664 88
-0.657694 3.539407 0.006283 68
-0.794664 3.630145 0.422083 55
-0.857043 3.396056 -0.195822 100
-0.982041 3.431639 0.136498 96
-0.413936 3.433634 -0.562880 101
-0.537322 3.513454 -0.109836 71
-0.665829 3.586544 0.174579 63
-0.737896 3.373538 -0.359909 100
-0.864615 3.428490 -0.034560 100
-1.000612 3.498760 0.307497 100
-0.418660 3.477744 -0.385481 101
-0.539338 3.530612 -0.055483 82
-0.671210 3.618922 0.232856 66
-0.740974 3.390342 -0.307891 92
-0.869930 3.452018 0.019883 81
-0.425468 3.539313 -0.226776 88
-0.548810 3.596672 0.111160 78
-0.750317 3.435863 -0.149244 86
-0.889665 3.532834 0.188378 79
-0.944424 3.306500 -0.345050 101
-0.425237 3.542425 -0.172001 82
-0.551496 3.618354 0.168126 56
-0.622058 3.360218 -0.459002 101
-0.756106 3.465169 -0.095971 67
-0.894103 3.552983 0.245916 75
-0.944117 3.307532 -0.291858 101
-0.308995 3.518063 -0.340677 101
-0.431323 3.598233 -0.007590 56
-0.634739 3.431944 -0.262426 100
-0.762478 3.497197 0.068102 82
-0.795017 3.161484 -0.937352 101
-0.958308 3.359388 -0.134814 101
-0.310913 3.546742 -0.288335 101
-0.427828 3.574169 0.047751 60
-0.644977 3.490579 -0.212133 100
-0.770087 3.534951 0.124442 62
-0.833359 3.316311 -0.410767 89
-0.962583 3.376527 -0.081516 81
-0.196441 3.541425 -0.349024 101
-0.525255 3.465760 -0.216238 94
-0.650791 3.532019 0.061435 83
-0.847671 3.380482 -0.141196 100
-0.982714 3.453752 0.192587 100
-0.527500 3.484526 -0.163116 97
-0.655739 3.562239 0.117626 72
-0.723448 3.331639 -0.427670 101
-0.859192 3.428876 -0.088860 93
-0.991031 3.485209 0.250194 79
-0.415924 3.499660 -0.333143 89
-0.538841 3.563491 -0.000629 84
-0.665726 3.619912 0.289671 67
-0.739293 3.407377 -0.255432 100
-0.869384 3.472024 0.074974 95
-0.911963 3.209201 -0.804970 101
-0.417299 3.516278 -0.279923 93
-0.540568 3.578989 0.054965 66
-0.674921 3.673384 0.397824 69
-0.742848 3.426544 -0.202777 67
-0.877150 3.505544 0.131242 78
-0.935611 3.294526 -0.399292 101
-0.298669 3.453814 -0.632882 100
-0.422017 3.561150 -0.117709 75
-0.552119 3.659630 0.227014 52
-0.626213 3.411511 -0.368228 101
-0.754470 3.482978 -0.041675 89
-0.883834 3.534780 0.300839 101
-0.947848 3.339751 -0.240935 101
-0.303525 3.516859 -0.395322 100
-0.423461 3.578483 -0.062898 77
-0.628741 3.428532 -0.315997 100
-0.755622 3.491138 0.013092 78
-0.947094 3.339234 -0.187372 101
-0.306229 3.555179 -0.233882 81
-0.512492 3.404737 -0.505485 100
-0.637322 3.478622 -0.156882 100
-0.763395 3.529923 0.179792 70
-0.831890 3.331800 -0.351244 101
-0.966424 3.409573 -0.027834 92
-0.307272 3.574311 -0.179851 82
-0.516775 3.437117 -0.375746 101
-0.637816 3.484622 -0.102664 92
-0.773088 3.577656 0.238621 53
-0.833502 3.340647 -0.298807 101
-0.964763 3.405896 0.026567 93
-0.513606 3.430931 -0.321214 100
-0.639388 3.505842 -0.048517 95
-0.770782 3.578041 0.295129 46
-0.836233 3.360725 -0.247030 100
-0.964540 3.413413 0.081114 88
-0.187842 3.512225 -0.400739 101
-0.519605 3.474933 -0.270971 84
-0.643168 3.529878 0.006262 70
-0.780298 3.625130 0.421180 56
-0.845168 3.399031 -0.195822 100
-0.970040 3.435051 0.136498 96
-0.401942 3.435058 -0.562880 101
-0.524457 3.511355 -0.109712 68
-0.652584 3.584917 0.174388 70
-0.728619 3.387763 -0.361153 101
-0.852636 3.431489 -0.034560 99
-0.992717 3.517578 0.308844 100
-0.407444 3.487082 -0.386356 100
-0.526424 3.528517 -0.055421 72
-0.657149 3.613387 0.232351 64
-0.729975 3.396802 -0.308244 93
-0.857879 3.455032 0.019883 73
-0.410811 3.520949 -0.225507 77
-0.537445 3.606473 0.111404 71
-0.735815 3.426736 -0.148735 94
-0.873493 3.520406 0.187552 77
-0.930730 3.302111 -0.344251 101
-0.413355 3.547853 -0.172193 77
-0.537709 3.612349 0.167759 64
-0.610348 3.362365 -0.459002 101
-0.742351 3.459963 -0.095755 67
-0.879798 3.548329 0.245380 83
-0.933668 3.314637 -0.292196 101
-0.297081 3.523084 -0.341061 101
-0.418332 3.595739 -0.007582 59
-0.621365 3.426283 -0.261826 100
-0.750299 3.499830 0.068102 71
-0.784007 3.164233 -0.937352 100
-0.945524 3.358856 -0.134659 101
-0.299243 3.555748 -0.288981 101
-0.634967 3.504588 -0.212848 100
-0.761136 3.553244 0.124992 60
-0.823727 3.326900 -0.411722 89
-0.954081 3.391403 -0.081795 86
-0.184771 3.554011 -0.350199 100
-0.515564 3.483359 -0.217223 74
-0.639242 3.538192 0.061504 80
-0.836894 3.387284 -0.141358 98
-0.969644 3.453295 0.192373 95
-0.515415 3.486334 -0.163116 95
-0.645515 3.576294 0.118015 70
-0.713549 3.341890 -0.428666 101
-0.844423 3.420187 -0.088558 99
-0.980019 3.492467 0.250469 92
-0.404710 3.508992 -0.333896 92
-0.527661 3.573250 -0.000630 71
-0.654597 3.630045 0.290299 55
-0.725820 3.402114 -0.254848 100
-0.859266 3.482780 0.075141 95
-0.901890 3.216085 -0.805908 101
-0.405125 3.517701 -0.279923 80
-0.528760 3.584796 0.055026 69
-0.658675 3.656126 0.395706 68
-0.729318 3.421283 -0.202315 74
-0.862140 3.496916 0.130807 80
-0.920985 3.286268 -0.397902 101
-0.287372 3.462670 -0.634319 100
-0.410154 3.566560 -0.117840 74
-0.538876 3.657568 0.226769 28
-0.614410 3.413657 -0.368228 101
-0.744085 3.493391 -0.041769 86
-0.877324 3.561040 0.302814 101
-0.935214 3.339167 -0.240658 101
-0.291369 3.517887 -0.395322 100
-0.409722 3.568005 -0.062689 81
-0.616889 3.430684 -0.315997 100
-0.741887 3.485904 0.013063 78
-0.933395 3.334794 -0.186941 101
-0.295266 3.572127 -0.234928 70
-0.500732 3.406487 -0.505485 101
-0.628133 3.496534 -0.157591 96
-0.757018 3.559892 0.181185 63
-0.822281 3.342381 -0.352058 101
-0.956800 3.420594 -0.027897 100
-0.295594 3.583313 -0.180252 79
-0.506646 3.450684 -0.377036 101
-0.627908 3.498608 -0.103012 92
-0.761569 3.584206 0.238881 56
-0.827679 3.366722 -0.300882 101
-0.955160 3.416909 0.026627 91
-0.500452 3.428849 -0.320845 100
-0.624424 3.496350 -0.048354 84
-0.759313 3.588644 0.295772 61
-0.826758 3.375393 -0.247884 100
-0.952022 3.416925 0.081114 88
-0.175166 3.516859 -0.401192 101
-0.506865 3.476814 -0.270971 88
-0.631631 3.540087 0.006276 68
-0.767828 3.631854 0.421631 57
-0.833654 3.405985 -0.196045 100
-0.956372 3.434732 0.136345 91
-0.391127 3.452200 -0.565450 101
-0.513312 3.525122 -0.110083 73
-0.642245 3.603018 0.175153 71
-0.717020 3.394303 -0.361568 100
-0.841003 3.438476 -0.034599 92
-0.980886 3.525032 0.309181 101
-0.394214 3.484601 -0.385919 101
-0.515791 3.546254 -0.055670 68
-0.644601 3.619702 0.232604 60
-0.718343 3.403353 -0.308598 95
-0.845210 3.458153 0.019883 74
-0.400144 3.542265 -0.226776 72
-0.526522 3.624245 0.111893 74
-0.729023 3.456782 -0.149922 88
-0.865323 3.542987 0.188585 77
-0.919686 3.309335 -0.344650 101
-0.400349 3.549345 -0.172193 87
-0.528483 3.641976 0.169044 59
-0.600101 3.376289 -0.460600 101
-0.731314 3.470486 -0.095971 63
-0.870572 3.567039 0.246451 80
-0.924713 3.329558 -0.293210 101
-0.284166 3.524150 -0.341061 101
-0.405150 3.597248 -0.007582 61
-0.609500 3.432465 -0.262126 90
-0.739115 3.510384 0.068254 82
-0.772404 3.167085 -0.937352 100
-0.937483 3.377705 -0.135276 101
-0.285569 3.548873 -0.288335 101
-0.620025 3.495097 -0.212133 91
-0.746461 3.548186 0.124717 63
-0.809647 3.322180 -0.410767 89
-0.942713 3.398731 -0.081888 88
-0.172705 3.574545 -0.352157 34
-0.503934 3.493129 -0.217716 72
-0.627663 3.548388 0.061641 87
-0.828251 3.405862 -0.142006 100
-0.960177 3.468374 0.193016 97
-0.504913 3.504019 -0.163856 91
-0.632403 3.578636 0.118015 74
-0.703739 3.356136 -0.430159 101
-0.834715 3.434916 -0.088860 99
-0.970404 3.507573 0.251296 85
-0.392288 3.514410 -0.334273 84
-0.513991 3.571201 -0.000630 79
-0.642674 3.640274 0.290926 67
-0.717436 3.424274 -0.256309 100
-0.845551 3.482020 0.075058 100
-0.890096 3.219369 -0.805908 101
-0.392671 3.523125 -0.280238 82
-0.519601 3.614422 0.055451 72
-0.647343 3.670267 0.396977 37
-0.720046 3.439568 -0.203239 78
-0.852145 3.511706 0.131242 88
-0.909992 3.293451 -0.398366 101
-0.274368 3.459777 -0.633601 100
-0.397521 3.572013 -0.117971 60
-0.601894 3.415886 -0.368228 101
-0.731276 3.496094 -0.041769 74
-0.861448 3.552609 0.301827 101
-0.922970 3.342572 -0.240658 101
-0.278787 3.522894 -0.395767 100
-0.397525 3.577433 -0.062829 72
-0.606382 3.444692 -0.317081 96
-0.732379 3.504261 0.013121 72
-0.921166 3.338193 -0.186941 100
-0.281857 3.569206 -0.234666 76
-0.489366 3.416134 -0.506647 101
-0.616005 3.502748 -0.157768 88
-0.743966 3.562643 0.181185 63
-0.809089 3.341505 -0.351651 101
-0.944256 3.424078 -0.027897 89
-0.283400 3.596320 -0.180853 59
-0.495121 3.460391 -0.377895 100
-0.614389 3.496948 -0.102896 89
-0.750873 3.598695 0.239662 52
-0.814396 3.365860 -0.300536 101
-0.943692 3.424243 0.026657 95
-0.487919 3.426632 -0.320476 91
-0.614284 3.510327 -0.048517 73
-0.744346 3.579561 0.294808 50
-0.814970 3.378259 -0.247884 100
-0.937970 3.412516 0.080931 100
-0.162889 3.517449 -0.401192 101
-0.493041 3.466717 -0.270048 88
-0.617892 3.534390 0.006262 60
-0.754337 3.630621 0.421180 57
-0.821759 3.408874 -0.196045 101
-0.941200 3.426487 0.135887 92
-0.379074 3.453544 -0.565450 101
-0.500442 3.522934 -0.109959 77
-0.630351 3.609174 0.175344 71
-0.705167 3.396785 -0.361568 101
-0.831806 3.453056 -0.034716 92
-0.966466 3.520748 0.308507 100
-0.382481 3.489908 -0.386356 100
-0.503409 3.548033 -0.055670 64
-0.633334 3.629795 0.233109 57
-0.707268 3.409741 -0.308951 93
-0.836878 3.476638 0.019972 76
-0.388211 3.547608 -0.227030 82
-0.512746 3.618144 0.111649 67
-0.716142 3.455393 -0.149753 82
-0.850148 3.534334 0.187965 75
-0.908129 3.312525 -0.344650 101
-0.387957 3.550720 -0.172193 82
-0.512406 3.620060 0.167943 57
-0.586952 3.370552 -0.459535 101
-0.717574 3.465187 -0.095755 63
-0.853452 3.550653 0.245112 78
-0.905713 3.305857 -0.290843 101
-0.272475 3.533060 -0.341829 101
-0.393458 3.606594 -0.007598 51
-0.596831 3.430642 -0.261826 93
-0.724426 3.501194 0.068026 78
-0.771220 3.210879 -0.949511 59
-0.924631 3.377101 -0.135122 101
-0.273485 3.553823 -0.288658 101
-0.609189 3.505108 -0.212610 100
-0.734881 3.554685 0.124854 55
-0.799899 3.332709 -0.411722 89
-0.927678 3.390429 -0.081609 100
-0.491738 3.494866 -0.217716 72
-0.615956 3.554498 0.061709 72
-0.815427 3.404846 -0.141844 98
-0.945960 3.463999 0.192587 90
-0.493235 3.509717 -0.164041 91
-0.619907 3.580822 0.118015 74
-0.689617 3.346910 -0.428666 101
-0.821789 3.433920 -0.088759 100
-0.958155 3.510939 0.251296 83
-0.379590 3.511798 -0.333896 97
-0.500966 3.569012 -0.000629 71
-0.628604 3.634637 0.290299 69
-0.703870 3.418943 -0.255724 98
-0.829671 3.469393 0.074723 93
-0.878853 3.222456 -0.805908 101
-0.379942 3.520510 -0.279923 77
-0.505316 3.604331 0.055269 69
-0.708840 3.445972 -0.203470 75
-0.843598 3.530211 0.131823 78
-0.899535 3.300441 -0.398829 101
-0.261100 3.445019 -0.630727 79
-0.385479 3.577353 -0.118103 62
-0.588614 3.410127 -0.367383 101
-0.718262 3.494708 -0.041722 86
-0.849968 3.559472 0.302156 101
-0.914442 3.357324 -0.241489 101
-0.266787 3.527810 -0.396212 100
-0.385891 3.586752 -0.062968 73
-0.595708 3.454639 -0.317803 100
-0.720947 3.510715 0.013136 65
-0.912655 3.352950 -0.187588 100
-0.269397 3.570168 -0.234666 74
-0.477438 3.417822 -0.506647 101
-0.603096 3.500939 -0.157591 91
-0.729919 3.557391 0.180787 58
-0.798343 3.348179 -0.352058 101
-0.932298 3.427353 -0.027897 97
-0.482490 3.458159 -0.377466 100
-0.603534 3.506952 -0.103128 84
-0.737505 3.597384 0.239402 55
-0.801719 3.364806 -0.300190 101
-0.931734 3.427516 0.026657 100
-0.478214 3.440064 -0.321582 84
-0.600628 3.500516 -0.048354 81
-0.734087 3.589819 0.295451 50
-0.801011 3.369294 -0.247030 100
-0.927711 3.419462 0.081022 100
-0.152258 3.541793 -0.403909 101
-0.483747 3.484133 -0.271279 92
-0.608882 3.552188 0.006290 67
-0.743100 3.636994 0.421631 54
-0.812307 3.419349 -0.196492 100
-0.934026 3.445018 0.136498 89
-0.368041 3.458708 -0.566093 101
-0.489859 3.532494 -0.110206 71
-0.619732 3.619120 0.175727 64
-0.697086 3.414697 -0.363227 100
-0.821278 3.459687 -0.034755 94
-0.962085 3.550862 0.310865 100
-0.371744 3.499065 -0.387231 100
-0.491638 3.549683 -0.055670 61
-0.621291 3.631876 0.233109 60
-0.694363 3.404261 -0.308244 97
-0.825342 3.479395 0.019972 78
-0.376015 3.544908 -0.226776 82
-0.500188 3.615865 0.111527 67
-0.703074 3.449919 -0.149413 82
-0.837493 3.533249 0.187759 78
-0.894012 3.303995 -0.343452 101
-0.377007 3.559935 -0.172578 79
-0.504759 3.653407 0.169411 35
-0.578425 3.388113 -0.461665 101
-0.706862 3.471468 -0.095863 73
-0.844417 3.565118 0.245916 80
-0.899933 3.328084 -0.292534 101
-0.261029 3.537916 -0.342213 101
-0.586101 3.436538 -0.262126 99
-0.713588 3.507500 0.068102 87
-0.826953 3.493990 -1.032413 21
-0.914450 3.384013 -0.135276 101
-0.261378 3.550736 -0.288335 101
-0.597534 3.507114 -0.212610 98
-0.725450 3.568861 0.125267 55
-0.789731 3.339214 -0.412199 89
-0.921616 3.412797 -0.082073 86
-0.479013 3.488574 -0.217223 83
-0.604788 3.560472 0.061777 87
-0.802250 3.399762 -0.141520 100
-0.937540 3.478699 0.193230 87
-0.482084 3.515299 -0.164226 91
-0.611320 3.602575 0.118664 75
-0.682404 3.368639 -0.431155 101
-0.814934 3.456099 -0.089262 100
-0.949567 3.525671 0.252122 83
-0.368713 3.520965 -0.334649 87
-0.490153 3.578588 -0.000630 73
-0.617820 3.644575 0.290926 52
-0.692471 3.421270 -0.255724 100
-0.823606 3.495494 0.075225 97
-0.868108 3.225368 -0.805908 101
-0.369030 3.529689 -0.280553 76
-0.496004 3.625809 0.055573 63
-0.698928 3.456145 -0.203932 88
-0.830905 3.529114 0.131678 72
-0.889556 3.307259 -0.399292 101
-0.249319 3.441946 -0.630009 40
-0.372295 3.566691 -0.117709 69
-0.579886 3.427759 -0.369072 101
-0.706598 3.497085 -0.041722 72
-0.839000 3.566169 0.302485 101
-0.900128 3.348795 -0.240658 101
-0.255009 3.528681 -0.396212 100
-0.373086 3.580064 -0.062829 83
-0.583508 3.452681 -0.317442 100
-0.710806 3.520944 0.013165 65
-0.903529 3.363693 -0.188019 100
-0.256609 3.559105 -0.233882 74
-0.465485 3.415476 -0.506066 100
-0.589403 3.491113 -0.157059 93
-0.715663 3.548061 0.180190 58
-0.785335 3.343080 -0.351244 101
-0.919808 3.426584 -0.027866 92
-0.471467 3.463693 -0.377895 97
-0.591146 3.505007 -0.103012 87
-0.725479 3.599829 0.239402 51
-0.785005 3.344189 -0.298115 100
-0.920274 3.430611 0.026657 95
-0.467273 3.449606 -0.322320 91
-0.591718 3.522313 -0.048626 81
-0.723907 3.604087 0.296415 48
-0.792882 3.387609 -0.248169 100
-0.916803 3.426543 0.081114 92
-0.140207 3.550246 -0.404815 51
-0.471047 3.481848 -0.270971 82
-0.595817 3.550347 0.006283 62
-0.731182 3.643462 0.422083 57
-0.798547 3.414386 -0.196045 94
-0.921995 3.448257 0.136498 91
-0.355158 3.452117 -0.564807 101
-0.477525 3.534183 -0.110206 73
-0.607095 3.621261 0.175727 64
-0.684380 3.413208 -0.362812 101
-0.807376 3.454742 -0.034677 99
-0.943511 3.531094 0.308844 100
-0.360340 3.508252 -0.388106 100
-0.479244 3.551378 -0.055670 79
-0.607950 3.630085 0.232856 64
-0.686388 3.426197 -0.310012 90
-0.814101 3.486150 0.019994 74
-0.364046 3.550169 -0.227030 88
-0.489165 3.629476 0.111893 74
-0.694950 3.471945 -0.150261 84
-0.829693 3.555602 0.188791 73
-0.888631 3.330168 -0.345848 101
-0.365392 3.569179 -0.172964 68
-0.567249 3.394022 -0.462197 101
-0.697092 3.485677 -0.096187 73
-0.832874 3.571931 0.246183 84
-0.891392 3.342758 -0.293549 101
-0.249236 3.546749 -0.342982 100
-0.576072 3.450366 -0.263025 85
-0.703691 3.521734 0.068330 78
-0.822603 3.530551 -1.042362 8
-0.899544 3.375598 -0.134814 101
-0.249819 3.563559 -0.289303 101
-0.584632 3.505239 -0.212371 100
-0.710640 3.559610 0.124854 60
-0.779871 3.349687 -0.413153 86
-0.905581 3.400537 -0.081702 85
-0.466833 3.490224 -0.217223 76
-0.591700 3.558616 0.061709 82
-0.786761 3.386970 -0.140872 100
-0.925391 3.481950 0.193230 100
-0.470868 3.524882 -0.164596 90
-0.596775 3.592855 0.118275 78
-0.668318 3.359322 -0.429661 101
-0.797440 3.435551 -0.088659 100
-0.935206 3.521251 0.251571 90
-0.358425 3.542041 -0.336531 84
-0.478188 3.584242 -0.000631 64
-0.605094 3.646709 0.290926 50
-0.679746 3.419754 -0.255432 96
-0.809593 3.490556 0.075058 92
-0.857842 3.232136 -0.806846 101
-0.356306 3.526989 -0.280238 65
-0.481759 3.615625 0.055390 70
-0.681414 3.431145 -0.202315 87
-0.814068 3.512522 0.130952 69
-0.874950 3.298823 -0.397902 101
-0.240280 3.485977 -0.637911 18
-0.360244 3.571947 -0.117840 65
-0.568567 3.433687 -0.369495 101
-0.695944 3.507376 -0.041816 66
-0.824748 3.561308 0.301827 101
-0.889455 3.355774 -0.240935 101
-0.243508 3.541447 -0.397547 100
-0.361789 3.593282 -0.063038 62
-0.574053 3.470417 -0.318886 100
-0.700845 3.535174 0.013209 68
-0.856633 3.701805 0.465190 0
-0.890759 3.362965 -0.187803 100
-0.244731 3.567943 -0.234405 47
-0.456684 3.440619 -0.509552 100
-0.581122 3.516805 -0.158122 83
-0.705602 3.562294 0.180787 63
-0.775453 3.353554 -0.352058 101
-0.909889 3.437508 -0.027928 92
-0.459896 3.469260 -0.378325 99
-0.578908 3.507049 -0.103012 77
-0.712133 3.598424 0.239141 54
-0.778710 3.370205 -0.300190 100
-0.906248 3.426068 0.026597 97
-0.455228 3.451216 -0.322320 84
-0.577473 3.512517 -0.048463 78
-0.709779 3.598768 0.295772 54
-0.782843 3.398132 -0.248738 100
-0.904837 3.429722 0.081114 92
-0.458890 3.483471 -0.270971 84
-0.584717 3.560299 0.006297 69
-0.721533 3.661590 0.423889 48
-0.788415 3.424937 -0.196492 100
-0.908934 3.447589 0.136345 89
-0.343105 3.453336 -0.564807 101
-0.464664 3.531864 -0.110083 68
-0.591863 3.607587 0.174962 65
-0.669387 3.399962 -0.361153 100
-0.794415 3.453642 -0.034638 97
-0.930164 3.530512 0.308507 100
-0.348092 3.509489 -0.388106 101
-0.467887 3.560960 -0.055794 62
-0.597212 3.644004 0.233614 60
-0.671349 3.412935 -0.308598 85
-0.799239 3.477275 0.019927 74
-0.352438 3.559364 -0.227538 82
-0.475973 3.627197 0.111771 72
-0.681285 3.466507 -0.149922 93
-0.816382 3.554583 0.188585 78
-0.874975 3.325552 -0.345050 101
-0.352538 3.566456 -0.172771 87
-0.556678 3.403806 -0.463262 101
-0.687232 3.499860 -0.096512 69
-0.822186 3.582596 0.246719 68
-0.878704 3.341995 -0.293210 101
-0.237650 3.559515 -0.344134 101
-0.562739 3.444482 -0.262426 100
-0.688313 3.508472 0.068026 78
-0.781918 3.409751 -1.005885 8
-0.889787 3.386449 -0.135122 100
-0.237378 3.564409 -0.289303 101
-0.573679 3.515140 -0.212848 91
-0.700517 3.573838 0.125267 60
-0.768174 3.352389 -0.413153 84
-0.894721 3.407545 -0.081795 88
-0.454647 3.491832 -0.217223 74
-0.580559 3.568555 0.061846 82
-0.779387 3.409176 -0.141682 100
-0.913231 3.485159 0.193230 87
-0.456500 3.510654 -0.163856 84
-0.586154 3.606755 0.118664 74
-0.658870 3.373321 -0.431155 101
-0.788115 3.450009 -0.088961 95
-0.924930 3.532214 0.252122 100
-0.346058 3.543271 -0.336531 78
-0.464128 3.573989 -0.000629 72
-0.593639 3.656671 0.291554 46
-0.671625 3.441683 -0.256893 100
-0.799183 3.501158 0.075225 95
-0.845570 3.231349 -0.805908 101
-0.345540 3.544086 -0.281499 68
-0.470679 3.629184 0.055573 70
-0.674018 3.457020 -0.203701 91
-0.806247 3.534828 0.131678 76
-0.868456 3.321076 -0.400219 101
-0.349710 3.593077 -0.118496 66
-0.557214 3.439577 -0.369917 101
-0.682932 3.505858 -0.041769 93
-0.814969 3.575826 0.302814 101
-0.877736 3.358858 -0.240935 101
-0.231403 3.546242 -0.397993 97
-0.350017 3.602485 -0.063178 11
-0.560027 3.460603 -0.317803 100
-0.686972 3.529747 0.013180 70
-0.832245 3.654447 0.458870 23
-0.875987 3.354460 -0.187157 100
-0.444165 3.438267 -0.508971 100
-0.569480 3.522757 -0.158300 86
-0.695451 3.576500 0.181384 55
-0.764625 3.360121 -0.352465 100
-0.894854 3.429052 -0.027834 100
-0.448292 3.474788 -0.378755 93
-0.569212 3.524837 -0.103475 77
-0.699568 3.600888 0.239141 53
-0.768708 3.380674 -0.300882 100
-0.895292 3.433081 0.026627 91
-0.444700 3.464636 -0.323426 100
-0.565843 3.518461 -0.048517 78
-0.697212 3.601224 0.295772 50
-0.769213 3.393062 -0.248169 100
-0.891853 3.428990 0.081022 100
-0.449770 3.508786 -0.272817 88
-0.571651 3.558369 0.006290 62
-0.705728 3.648478 0.422083 56
-0.774691 3.419878 -0.196045 100
-0.898905 3.458478 0.136651 92
-0.330672 3.450582 -0.564165 100
-0.452333 3.533465 -0.110083 71
-0.581166 3.621466 0.175536 69
-0.657515 3.402278 -0.361153 100
-0.784121 3.464196 -0.034716 100
-0.920841 3.545310 0.309518 100
-0.335839 3.510682 -0.388106 100
-0.454946 3.558604 -0.055732 78
-0.585120 3.650008 0.233866 66
-0.665474 3.446554 -0.311426 92
-0.792391 3.503452 0.020061 79
-0.340770 3.568520 -0.228046 84
-0.462296 3.620904 0.111527 33
-0.669180 3.468864 -0.149922 97
-0.805731 3.565204 0.188998 76
-0.864361 3.332438 -0.345449 101
-0.341224 3.579597 -0.173349 68
-0.542914 3.393985 -0.461665 101
-0.672741 3.490459 -0.096187 73
-0.806159 3.569872 0.245648 74
-0.864033 3.333467 -0.292196 101
-0.224972 3.556350 -0.343750 101
-0.552600 3.458242 -0.263325 88
-0.682112 3.542270 0.068635 69
-0.768319 3.404959 -1.003674 4
-0.878963 3.393404 -0.135276 100
-0.224934 3.565216 -0.289303 101
-0.560776 3.513179 -0.212610 91
-0.685017 3.560559 0.124717 53
-0.760835 3.374421 -0.415538 74
-0.878812 3.395162 -0.081423 87
-0.442957 3.497359 -0.217469 74
-0.565585 3.554761 0.061572 80
-0.769236 3.419675 -0.142006 100
-0.899063 3.480591 0.192802 92
-0.445246 3.520155 -0.164226 88
-0.572933 3.604830 0.118535 74
-0.647091 3.375600 -0.431155 101
-0.776944 3.456640 -0.089061 100
-0.913592 3.539285 0.252398 86
-0.334061 3.548422 -0.336908 87
-0.455159 3.603367 -0.000634 65
-0.582122 3.666598 0.292182 21
-0.658107 3.436170 -0.256309 100
-0.786081 3.500025 0.075141 91
-0.836228 3.241812 -0.807784 101
-0.333913 3.553210 -0.282129 75
-0.457007 3.622868 0.055451 66
-0.660446 3.451508 -0.203239 86
-0.791277 3.525920 0.131242 69
-0.854874 3.316393 -0.399292 101
-0.336045 3.582335 -0.118103 66
-0.542715 3.425786 -0.368228 101
-0.671441 3.512150 -0.041816 82
-0.802482 3.578649 0.302814 101
-0.863020 3.350309 -0.240104 101
-0.219023 3.547028 -0.397993 74
-0.547321 3.458602 -0.317442 100
-0.673897 3.528194 0.013165 68
-0.809934 3.614713 0.453523 35
-0.867260 3.369102 -0.187803 100
-0.431667 3.435870 -0.508390 100
-0.555932 3.516829 -0.157945 100
-0.682962 3.578906 0.181384 57
-0.753761 3.366652 -0.352872 100
-0.884872 3.439902 -0.027897 89
-0.437150 3.484224 -0.379615 97
-0.556904 3.526802 -0.103475 77
-0.688490 3.611149 0.239662 49
-0.757773 3.387226 -0.301228 96
-0.882307 3.432312 0.026597 93
-0.432603 3.466167 -0.323426 100
-0.555422 3.532267 -0.048681 81
-0.684638 3.603636 0.295772 54
-0.759970 3.407409 -0.249022 100
-0.883850 3.447577 0.081388 87
-0.436533 3.502420 -0.272201 78
-0.559847 3.564295 0.006297 69
-0.691506 3.643110 0.421180 56
-0.763617 3.426459 -0.196268 94
-0.885835 3.457723 0.136498 98
-0.320803 3.475303 -0.568020 100
-0.441478 3.546925 -0.110453 73
-0.568521 3.623473 0.175536 71
-0.645635 3.404553 -0.361153 99
-0.769416 3.455199 -0.034599 97
-0.907471 3.544642 0.309181 100
-0.323947 3.515792 -0.388544 100
-0.444495 3.576046 -0.055980 58
-0.571140 3.644140 0.233361 66
-0.648247 3.421453 -0.308951 85
-0.778419 3.498388 0.020017 77
-0.326483 3.549812 -0.226776 84
-0.653351 3.451545 -0.149074 88
-0.787212 3.540698 0.187552 76
-0.849766 3.323867 -0.344251 101
-0.327266 3.564852 -0.172578 87
-0.531676 3.399776 -0.462197 101
-0.658323 3.480999 -0.095863 65
-0.792827 3.568769 0.245380 76
-0.852392 3.336463 -0.292196 101
-0.213269 3.569037 -0.344902 100
-0.538063 3.444386 -0.262126 96
-0.667516 3.532840 0.068406 76
-0.758928 3.418879 -1.006990 1
-0.865135 3.388705 -0.134968 100
-0.212014 3.558020 -0.288658 53
-0.548509 3.515115 -0.212610 83
-0.674808 3.574713 0.125129 58
-0.749051 3.377056 -0.415538 81
-0.869921 3.409833 -0.081702 93
-0.432209 3.510772 -0.218208 81
-0.556861 3.580425 0.061983 78
-0.757294 3.422339 -0.142006 88
-0.884937 3.475967 0.192373 95
-0.434906 3.537551 -0.164966 90
-0.561574 3.614709 0.118794 82
-0.636771 3.385639 -0.432151 101
-0.764010 3.455427 -0.088961 100
-0.901232 3.542453 0.252398 90
-0.320595 3.537668 -0.335778 80
-0.439653 3.581113 -0.000630 75
-0.646108 3.438447 -0.256309 100
-0.773859 3.502748 0.075141 91
-0.824906 3.244711 -0.807784 101
-0.320789 3.546412 -0.281499 75
-0.443384 3.616502 0.055330 60
-0.647657 3.449867 -0.203008 73
-0.778965 3.528661 0.131242 79
-0.841336 3.311655 -0.398366 101
-0.323179 3.579505 -0.117971 57
-0.533797 3.447314 -0.370339 101
-0.661389 3.526265 -0.041956 63
-0.789985 3.581428 0.302814 101
-0.854265 3.364904 -0.240935 100
-0.207334 3.559676 -0.399328 73
-0.537680 3.476239 -0.318886 100
-0.663787 3.542320 0.013209 69
-0.799875 3.629150 0.454982 48
-0.857459 3.379852 -0.188235 98
-0.419191 3.433428 -0.507809 101
-0.541823 3.506901 -0.157413 100
-0.668260 3.569487 0.180787 63
-0.739437 3.357605 -0.351651 101
-0.871876 3.439093 -0.027866 100
-0.424022 3.477834 -0.378755 99
-0.544590 3.528725 -0.103475 84
-0.676614 3.617454 0.239922 52
-0.741662 3.370391 -0.299498 100
-0.870321 3.435370 0.026597 95
-0.421460 3.475564 -0.324164 91
-0.543088 3.534185 -0.048681 81
-0.674246 3.617762 0.296737 49
-0.748071 3.410041 -0.249022 100
-0.870831 3.446764 0.081297 91
-0.425264 3.511841 -0.272817 90
-0.548009 3.570181 0.006304 64
-0.681695 3.661131 0.422986 54
-0.753362 3.436906 -0.196715 100
-0.872782 3.456919 0.136345 91
-0.307972 3.468537 -0.566735 101
-0.429094 3.548444 -0.110453 66
-0.556475 3.629385 0.175727 62
-0.638113 3.430254 -0.363641 100
-0.765052 3.493029 -0.034951 100
-0.897043 3.555517 0.309855 96
-0.312024 3.520862 -0.388981 100
-0.431051 3.569635 -0.055856 72
-0.558416 3.646112 0.233361 57
-0.639212 3.439364 -0.310365 90
-0.766203 3.501084 0.020017 83
-0.316201 3.574788 -0.228300 75
-0.646406 3.481310 -0.150261 91
-0.778261 3.559035 0.188378 76
-0.839131 3.330673 -0.344650 101
-0.314820 3.565973 -0.172578 85
-0.520404 3.405530 -0.462730 101
-0.650544 3.506865 -0.096512 69
-0.781217 3.575413 0.245648 65
-0.841713 3.343283 -0.292534 101
-0.200362 3.561809 -0.344134 101
-0.526638 3.450186 -0.262426 90
-0.656637 3.543013 0.068559 76
-0.742069 3.398973 -1.000358 1
-0.855251 3.399457 -0.135276 100
-0.537439 3.524902 -0.213087 98
-0.662326 3.577047 0.125129 63
-0.736412 3.375770 -0.415061 70
-0.861914 3.428362 -0.082073 82
-0.420900 3.520187 -0.218701 81
-0.542557 3.570485 0.061777 72
-0.748743 3.440583 -0.142654 94
-0.881545 3.513902 0.194301 100
-0.421134 3.527145 -0.164411 88
-0.547753 3.608742 0.118535 78
-0.624949 3.387841 -0.432151 101
-0.752793 3.461980 -0.089061 93
-0.885950 3.533965 0.251571 86
-0.308935 3.546700 -0.336531 78
-0.429044 3.598513 -0.000633 72
-0.634825 3.444604 -0.256601 90
-0.762476 3.509336 0.075225 89
-0.814520 3.251343 -0.808723 101
-0.310135 3.567373 -0.283075 75
-0.433595 3.641856 0.055694 35
-0.639226 3.471744 -0.204163 65
-0.770035 3.546984 0.131823 79
-0.834595 3.333842 -0.400682 101
-0.521165 3.445223 -0.369917 101
-0.646905 3.516752 -0.041816 82
-0.777479 3.584164 0.302814 101
-0.839609 3.356252 -0.240104 101
-0.194907 3.560378 -0.399328 77
-0.524352 3.470217 -0.318164 100
-0.649972 3.536747 0.013180 69
-0.787202 3.631920 0.454982 54
-0.843718 3.375074 -0.187803 100
-0.407670 3.438800 -0.508390 100
-0.530771 3.516673 -0.157768 100
-0.656518 3.575728 0.180986 57
-0.732766 3.383500 -0.354093 100
-0.858896 3.438235 -0.027834 82
-0.413282 3.491140 -0.380045 100
-0.531673 3.526651 -0.103359 84
-0.662542 3.611942 0.239402 52
-0.735793 3.400223 -0.301919 100
-0.860261 3.446149 0.026657 88
-0.409335 3.477013 -0.324164 100
-0.531352 3.540013 -0.048735 81
-0.660906 3.616170 0.296415 52
-0.736172 3.412629 -0.249022 100
-0.860735 3.457541 0.081480 85
-0.412542 3.509342 -0.272509 76
-0.537921 3.587894 0.006332 59
-0.668917 3.663487 0.422986 49
-0.740525 3.435610 -0.196492 100
-0.863610 3.471579 0.136804 91
-0.296200 3.473525 -0.567378 100
-0.417639 3.557862 -0.110700 75
-0.544397 3.635256 0.175918 71
-0.625423 3.428546 -0.363227 101
-0.751172 3.487857 -0.034873 92
-0.883667 3.554759 0.309518 100
-0.300068 3.525892 -0.389419 100
-0.418586 3.571118 -0.055856 66
-0.544503 3.640143 0.232856 38
-0.626487 3.437655 -0.310012 84
-0.753976 3.503737 0.020017 75
-0.302702 3.563938 -0.227538 84
-0.634961 3.487478 -0.150431 82
-0.764989 3.557825 0.188172 84
-0.825577 3.325857 -0.343852 101
-0.303374 3.578994 -0.173156 74
-0.509676 3.415169 -0.463795 101
-0.638291 3.509116 -0.096512 73
-0.768723 3.578120 0.245648 76
-0.830989 3.350071 -0.292872 101
-0.188335 3.570439 -0.344902 100
-0.514580 3.452005 -0.262426 78
-0.642109 3.533482 0.068330 71
-0.735030 3.424097 -1.006990 1
-0.842407 3.398545 -0.135122 100
-0.526293 3.534658 -0.213564 86
-0.651962 3.591140 0.125542 50
-0.726275 3.386089 -0.416015 86
-0.848003 3.423590 -0.081888 86
-0.407663 3.513706 -0.218208 74
-0.532412 3.588185 0.062051 76
-0.735031 3.435364 -0.142330 94
-0.869248 3.516964 0.194301 100
-0.410629 3.544474 -0.165150 86
-0.536881 3.622501 0.118924 77
-0.613091 3.390007 -0.432151 101
-0.740675 3.464593 -0.089061 100
-0.873579 3.537043 0.251571 85
-0.297846 3.563633 -0.338037 80
-0.417366 3.607940 -0.000634 70
-0.624183 3.454656 -0.257186 97
-0.751024 3.515894 0.075309 91
-0.802204 3.250398 -0.807784 101
-0.297643 3.568437 -0.283075 79
-0.628486 3.481820 -0.204624 72
-0.758446 3.553567 0.131968 79
-0.824821 3.344459 -0.401608 101
-0.511421 3.462767 -0.371606 101
-0.635295 3.522932 -0.041863 79
-0.768248 3.602460 0.304131 101
-0.830715 3.370796 -0.240935 101
-0.182637 3.565009 -0.399773 73
-0.512774 3.475973 -0.318525 100
-0.638997 3.546875 0.013209 72
-0.779439 3.657954 0.457898 53
-0.830935 3.374131 -0.187588 100
-0.396069 3.444139 -0.508971 100
-0.521357 3.538279 -0.158654 96
-0.646107 3.589802 0.181582 58
-0.718419 3.374371 -0.352872 101
-0.853534 3.468411 -0.028054 70
-0.401950 3.500469 -0.380905 93
-0.518144 3.520581 -0.103128 79
-0.647052 3.598528 0.238361 51
-0.722212 3.394986 -0.301228 100
-0.847222 3.445259 0.026627 97
-0.395840 3.466549 -0.323058 100
-0.518991 3.541846 -0.048735 73
-0.647576 3.614530 0.296094 49
-0.722600 3.407372 -0.248453 100
-0.844851 3.444989 0.081114 95
-0.401194 3.518686 -0.273124 90
-0.523656 3.577877 0.006311 64
-0.730183 3.445988 -0.196938 90
-0.852438 3.478455 0.136957 92
-0.283430 3.466667 -0.566093 101
-0.405218 3.559298 -0.110700 68
-0.532860 3.645041 0.176300 61
-0.611351 3.418959 -0.361983 99
-0.738164 3.486545 -0.034833 92
-0.872201 3.561693 0.309855 99
-0.287435 3.522955 -0.388981 100
-0.405667 3.568583 -0.055794 68
-0.615885 3.447665 -0.310719 95
-0.742569 3.510261 0.020039 69
-0.290908 3.572930 -0.228046 77
-0.622783 3.489673 -0.150431 86
-0.751739 3.556566 0.187965 73
-0.815853 3.336451 -0.344650 101
-0.291527 3.587996 -0.173541 71
-0.498323 3.420851 -0.464327 101
-0.625336 3.507386 -0.096404 79
-0.759527 3.596402 0.246719 80
-0.819290 3.352952 -0.292872 101
-0.175284 3.559145 -0.343750 42
-0.503675 3.461675 -0.263025 88
-0.631875 3.547513 0.068559 74
-0.714342 3.385266 -0.994831 1
-0.830538 3.401465 -0.135122 100
-0.513377 3.532522 -0.213326 78
-0.640824 3.601266 0.125817 51
-0.711174 3.373060 -0.414107 86
-0.837943 3.434299 -0.082073 84
-0.397181 3.530977 -0.219193 81
-0.519883 3.590022 0.062051 83
-0.724680 3.445731 -0.142654 88
-0.856021 3.516096 0.194087 95
-0.398254 3.545885 -0.165150 82
-0.523088 3.616439 0.118664 75
-0.601254 3.392127 -0.432151 101
-0.727754 3.463244 -0.088961 95
-0.862171 3.543948 0.251847 92
-0.284769 3.556712 -0.337284 78
-0.406107 3.621300 -0.000636 57
-0.610729 3.448958 -0.256601 90
-0.739568 3.522408 0.075393 87
-0.790853 3.253179 -0.807784 101
-0.284232 3.557529 -0.282129 73
-0.613546 3.468263 -0.203701 75
-0.743575 3.544456 0.131533 72
-0.807514 3.324153 -0.398829 101
-0.499331 3.464531 -0.371606 101
-0.625082 3.536944 -0.042003 76
-0.757304 3.612923 0.304789 100
-0.818943 3.373675 -0.240935 101
-0.170571 3.573566 -0.400664 68
-0.501773 3.485628 -0.319248 100
-0.627307 3.553023 0.013224 70
-0.764224 3.648994 0.456440 44
-0.820093 3.380892 -0.187803 100
-0.384921 3.453367 -0.510133 100
-0.507297 3.528211 -0.158122 91
-0.632184 3.584167 0.181185 51
-0.705821 3.372963 -0.352465 101
-0.836710 3.451933 -0.027897 78
-0.388409 3.489994 -0.379615 97
-0.506420 3.526326 -0.103243 82
-0.640029 3.632212 0.240443 48
-0.711988 3.405288 -0.301919 100
-0.834249 3.444308 0.026597 86
-0.385051 3.479786 -0.324164 91
-0.506625 3.543636 -0.048735 78
-0.635645 3.620696 0.296415 62
-0.713144 3.421592 -0.249307 100
-0.833760 3.451805 0.081205 90
-0.388471 3.516101 -0.272817 78
-0.511729 3.583642 0.006318 62
-0.718150 3.448516 -0.196938 100
-0.836539 3.465867 0.136345 100
-0.271943 3.475508 -0.567378 100
-0.392791 3.560690 -0.110700 82
-0.520697 3.650834 0.176492 50
-0.602159 3.436748 -0.363641 100
-0.722730 3.473437 -0.034677 87
-0.861632 3.572465 0.310528 100
-0.275445 3.527901 -0.389419 100
-0.394083 3.577928 -0.055918 68
-0.606595 3.465493 -0.312133 92
-0.734382 3.532413 0.020151 82
-0.277814 3.565964 -0.227538 75
-0.607845 3.476079 -0.149753 86
-0.739320 3.559168 0.187965 77
-0.803270 3.335409 -0.344251 101
-0.485263 3.414719 -0.463262 101
-0.613089 3.509547 -0.096404 63
-0.743724 3.583400 0.245648 76
-0.807581 3.355791 -0.292872 101
-0.493270 3.475259 -0.263925 83
-0.622238 3.565456 0.068863 74
-0.819594 3.408230 -0.135276 100
-0.500482 3.530339 -0.213087 76
-0.626876 3.595604 0.125542 59
-0.698589 3.371633 -0.413630 86
-0.824082 3.429427 -0.081888 92
-0.383988 3.524405 -0.218701 81
-0.505670 3.579934 0.061846 82
-0.709412 3.432584 -0.142006 95
-0.844674 3.522947 0.194301 100
-0.386306 3.551226 -0.165335 88
-0.512695 3.634078 0.119184 72
-0.589410 3.394205 -0.432151 101
-0.720513 3.489260 -0.089564 88
-0.851654 3.554698 0.252398 94
-0.272048 3.553714 -0.336908 87
-0.393032 3.618719 -0.000635 16
-0.601414 3.466791 -0.257770 97
-0.725652 3.517134 0.075225 89
-0.781303 3.263483 -0.809661 101
-0.272724 3.570428 -0.283075 76
-0.603481 3.482188 -0.204393 65
-0.735233 3.566606 0.132259 74
-0.800528 3.346272 -0.401145 101
-0.486680 3.462314 -0.371184 101
-0.610685 3.527281 -0.041863 82
-0.745492 3.619449 0.305118 87
-0.806234 3.372632 -0.240658 101
-0.158096 3.574140 -0.400664 64
-0.490156 3.491303 -0.319609 100
-0.614220 3.551250 0.013209 75
-0.747480 3.632195 0.454009 49
-0.810143 3.391504 -0.188235 101
-0.372440 3.450755 -0.509552 100
-0.496643 3.541832 -0.158654 98
-0.621030 3.594225 0.181582 60
-0.694845 3.379304 -0.352872 101
-0.822798 3.447052 -0.027834 94
-0.377503 3.503190 -0.380905 100
-0.496326 3.543911 -0.103707 89
-0.628025 3.638358 0.240703 51
-0.700898 3.411655 -0.302265 99
-0.825933 3.462762 0.026717 85
-0.373760 3.489028 -0.324902 100
-0.494814 3.549343 -0.048790 81
-0.625039 3.634679 0.297380 73
-0.700405 3.420149 -0.249022 100
-0.825416 3.470253 0.081571 85
-0.377049 3.525366 -0.273432 84
-0.501429 3.601253 0.006346 64
-0.705313 3.447088 -0.196715 100
-0.830912 3.495986 0.137415 82
-0.261283 3.496121 -0.570590 100
-0.380786 3.566015 -0.110824 70
-0.506302 3.640757 0.175918 23
-0.588815 3.430986 -0.362812 100
-0.711405 3.479857 -0.034716 87
-0.847317 3.567694 0.309855 100
-0.262832 3.524876 -0.388981 100
-0.380742 3.571328 -0.055794 62
-0.592473 3.455808 -0.311072 90
-0.717243 3.511441 0.020017 74
-0.265952 3.574875 -0.228046 77
-0.599076 3.497875 -0.150600 88
-0.730081 3.577384 0.188791 75
-0.794373 3.349812 -0.345449 101
-0.473877 3.420320 -0.463795 101
-0.598803 3.499844 -0.096079 56
-0.733595 3.597708 0.246451 73
-0.795855 3.358592 -0.292872 101
-0.482765 3.488815 -0.264825 77
-0.609776 3.567609 0.068863 74
-0.809523 3.418852 -0.135585 100
-0.490327 3.547888 -0.214042 72
-0.616996 3.613536 0.126092 61
