# This PCD file was generated using the MATLAB® pcwrite function
# from Computer Vision Toolbox®.
# .PCD v.7 - Point Cloud Data file format
VERSION .7
FIELDS x y z intensity
SIZE 4 4 4 1
TYPE F F F U
COUNT 1 1 1 1
WIDTH 1459
HEIGHT 1
VIEWPOINT 0 0 0 1 0 0 0
POINTS 1459
DATA ascii
-0.519968 5.543024 0.084543 101
-0.879138 5.549406 -0.324951 101
-0.161913 5.416027 -0.989193 17
-0.338548 5.490610 -0.180566 100
-0.692203 5.501465 -0.588658 97
-0.880862 5.566349 -0.065904 101
-1.259253 5.626948 -0.400173 67
-0.161465 5.431630 -0.608564 101
-0.337509 5.488795 -0.095988 100
-0.694806 5.529665 -0.505235 101
-0.885601 5.602398 0.020789 98
-1.246425 5.574025 -0.308334 91
-0.160384 5.425982 -0.355793 101
-0.336744 5.491430 0.157522 101
-0.511745 5.485127 -0.808775 101
-0.698027 5.562863 -0.248706 101
-1.057745 5.550636 -0.577945 100
-0.159026 5.410865 -0.271379 101
-0.338560 5.536289 0.244111 59
-0.511095 5.488139 -0.595863 100
-0.694501 5.542311 -0.161875 100
-1.059837 5.566708 -0.491786 101
-0.156518 5.442464 -0.189182 101
-0.505481 5.465197 -0.508189 101
-0.691726 5.548530 -0.076125 101
-1.061327 5.593739 -0.406120 101
0.015763 5.365265 -0.611297 101
-0.155896 5.452748 -0.105693 101
-0.507786 5.500208 -0.425987 101
-0.693820 5.572968 0.009802 101
-1.059935 5.591538 -0.318183 101
-0.328484 5.458178 -0.889941 89
-0.508123 5.513994 -0.171116 101
-0.870490 5.553745 -0.585889 101
-1.059853 5.596251 -0.055671 101
-0.327979 5.465115 -0.602506 80
-0.507376 5.516046 -0.086052 101
-0.870845 5.562126 -0.499483 101
-0.327417 5.471132 -0.348672 100
-0.508101 5.534131 0.169794 101
-0.867601 5.547512 -0.238281 101
-1.252721 5.645646 -0.580274 101
-0.325349 5.451958 -0.263298 100
-0.680032 5.492362 -0.743350 101
-0.868982 5.562471 -0.152342 101
-1.245788 5.618871 -0.488346 100
-0.150308 5.416761 -0.522730 100
-0.326471 5.486283 -0.011511 100
-0.681320 5.510366 -0.417482 101
-1.244928 5.619468 -0.222118 92
-0.149600 5.424172 -0.439444 80
-0.326705 5.505830 0.073165 101
-0.684524 5.543934 -0.333828 101
-1.051342 5.576966 -0.681750 59
-1.241981 5.610632 -0.133416 101
0.023890 5.366029 -0.528040 101
-0.147775 5.457956 -0.021918 29
-0.498907 5.494909 -0.340365 101
-0.686747 5.585114 0.096258 90
-1.047078 5.569784 -0.229606 101
-0.498035 5.495572 -0.255401 101
-0.858793 5.533870 -0.702494 89
-1.054050 5.612069 -0.143543 101
-0.320207 5.474198 -0.518349 100
-0.500166 5.529425 -0.000969 101
-0.861663 5.558536 -0.412082 101
-0.318551 5.461650 -0.432493 100
-0.500616 5.544805 0.084543 101
-0.860373 5.556387 -0.325182 101
-0.318452 5.475794 -0.180041 90
-0.673478 5.507796 -0.589080 97
-0.859593 5.557531 -0.065764 101
-1.234456 5.607927 -0.398512 77
-0.142296 5.424213 -0.607673 101
-0.317422 5.473969 -0.095709 100
-0.675017 5.528102 -0.504873 101
-0.866040 5.605455 0.020789 101
-1.230392 5.593946 -0.309196 100
-0.141859 5.442470 -0.356839 101
-0.317112 5.484589 0.157293 101
-0.491887 5.478997 -0.807613 101
-0.676187 5.545433 -0.247820 101
-1.037632 5.550383 -0.577538 101
-0.140138 5.411387 -0.271379 101
-0.317853 5.513500 0.243056 87
-0.492644 5.497811 -0.596722 101
-0.674184 5.536763 -0.161644 100
-1.038936 5.562539 -0.491094 101
-0.136900 5.419000 -0.188349 101
-0.486033 5.462962 -0.507820 101
-0.670415 5.535030 -0.075907 101
-1.038130 5.577800 -0.404697 101
0.034475 5.361203 -0.610845 101
-0.137053 5.461255 -0.105848 101
-0.488574 5.501948 -0.425987 101
-0.673873 5.571386 0.009795 101
-1.038941 5.587353 -0.317736 101
-0.309426 5.459291 -0.889941 99
-0.488869 5.515734 -0.171116 101
-0.851095 5.556750 -0.585889 101
-1.039578 5.595985 -0.055632 101
-0.308678 5.462257 -0.602068 83
-0.488473 5.521767 -0.086114 101
-0.849619 5.553317 -0.498422 101
-0.307202 5.452313 -0.347402 100
-0.489139 5.539853 0.169916 100
-0.849446 5.558407 -0.238620 100
-1.221133 5.595543 -0.574683 101
-0.307225 5.469016 -0.264068 101
-0.661816 5.502573 -0.744415 101
-0.849573 5.565469 -0.152342 101
-1.221085 5.599817 -0.486317 100
-0.130838 5.393370 -0.520426 100
-0.305995 5.463426 -0.011461 100
-0.661149 5.504788 -0.416882 101
-1.221070 5.604248 -0.221347 82
-0.130593 5.420675 -0.439121 80
-0.306393 5.486969 0.072900 101
-0.664717 5.542322 -0.333590 101
-1.029727 5.568882 -0.680319 63
-1.221562 5.611020 -0.133323 101
-0.479070 5.488659 -0.339873 101
-0.665392 5.571587 0.095984 93
-1.026221 5.565536 -0.229282 101
-0.478202 5.489311 -0.255031 101
-0.838922 5.532903 -0.701996 89
-1.033052 5.607840 -0.143342 101
-0.300492 5.463351 -0.517219 100
-0.480221 5.523162 -0.000968 101
-0.841710 5.557558 -0.411789 101
-0.299323 5.458744 -0.432178 100
-0.480625 5.538544 0.084422 101
-0.841030 5.559348 -0.325182 101
-1.216490 5.614816 -0.669810 3
-0.299617 5.480861 -0.180172 85
-0.652904 5.498256 -0.587813 100
-0.840252 5.560488 -0.065764 101
-1.206495 5.573187 -0.395742 83
-0.123338 5.420701 -0.607228 101
-0.298598 5.479033 -0.095779 100
-0.654847 5.522505 -0.504151 101
-0.845344 5.600523 0.020760 101
-1.210928 5.598191 -0.309196 101
-0.122843 5.438940 -0.356578 101
-0.298039 5.485658 0.157293 101
-0.473513 5.488560 -0.808775 101
-0.658310 5.559655 -0.248352 101
-1.018326 5.553957 -0.577538 100
-0.121415 5.415836 -0.271580 101
-0.298037 5.502600 0.242528 73
-0.472506 5.487604 -0.595433 100
-0.654933 5.539073 -0.161644 100
-1.020311 5.570036 -0.491440 101
-0.118244 5.431435 -0.188765 101
-0.466622 5.460657 -0.507451 101
-0.651090 5.537336 -0.075907 101
-1.019369 5.585315 -0.404982 101
0.053110 5.353102 -0.609939 101
-0.118162 5.469697 -0.106003 57
-0.468349 5.491699 -0.425065 101
-0.653022 5.561786 0.009774 101
-1.018715 5.587016 -0.317513 101
-0.289739 5.448511 -0.888014 82
-0.467917 5.497489 -0.170499 101
-0.828162 5.536079 -0.583402 101
-1.017171 5.583839 -0.055475 101
-0.289188 5.455360 -0.601193 83
-0.468180 5.511483 -0.085927 101
-0.829640 5.552308 -0.498069 101
-0.287746 5.445380 -0.346894 100
-0.469461 5.537542 0.169794 101
-0.827089 5.541575 -0.237772 101
-1.199089 5.588098 -0.573485 101
-0.287923 5.466065 -0.263875 100
-0.642145 5.500912 -0.743882 101
-0.828962 5.560491 -0.152125 101
-1.193175 5.565074 -0.482935 100
-0.112093 5.397774 -0.520810 100
-0.287341 5.472449 -0.011477 101
-0.641468 5.503100 -0.416582 101
-1.201500 5.608476 -0.221347 86
-0.111589 5.417112 -0.438798 80
-0.287029 5.484011 0.072847 101
-0.644905 5.540642 -0.333351 100
-1.008865 5.564627 -0.679365 64
-1.198621 5.599608 -0.132951 101
-0.459908 5.490298 -0.339873 101
-0.644097 5.557985 0.095711 100
-1.006788 5.569085 -0.229282 101
-0.458039 5.479002 -0.254476 101
-0.817279 5.520093 -0.700005 92
-1.009207 5.587802 -0.142739 101
-0.282239 5.480275 -0.518725 100
-0.461603 5.532777 -0.000969 101
-0.822889 5.564408 -0.412082 101
-0.279858 5.451791 -0.431548 100
-0.460625 5.532217 0.084300 101
-0.818118 5.538547 -0.323796 101
-1.184467 5.560740 -0.662862 101
-0.280279 5.477880 -0.180041 88
-0.634163 5.504453 -0.588235 97
-0.820837 5.563387 -0.065764 101
-1.187034 5.577364 -0.395742 90
-0.104339 5.417124 -0.606783 101
-0.279267 5.476048 -0.095709 100
-0.636021 5.528715 -0.504512 101
-0.824623 5.595525 0.020730 101
-1.190548 5.598477 -0.308981 101
-0.103552 5.423373 -0.355531 101
-0.278483 5.478679 0.157064 101
-0.453046 5.474403 -0.806451 101
-0.637987 5.553979 -0.247997 101
-0.998228 5.553561 -0.577131 101
-0.102661 5.424215 -0.271980 101
-0.279029 5.507598 0.242704 64
-0.453021 5.485257 -0.595003 100
-0.635139 5.537354 -0.161528 100
-1.000157 5.569642 -0.491094 101
-0.098846 5.407833 -0.187932 101
-0.447232 5.458283 -0.507082 101
-0.630851 5.531628 -0.075798 101
-0.998462 5.580984 -0.404412 101
0.071849 5.356858 -0.610392 15
-0.449177 5.493300 -0.425065 101
-0.633604 5.564032 0.009774 101
-0.996396 5.574812 -0.316620 101
-0.270914 5.453432 -0.888656 87
-0.449050 5.503074 -0.170622 101
-0.809407 5.542873 -0.583816 101
-0.996970 5.583418 -0.055436 101
-0.269554 5.444423 -0.599880 83
-0.448289 5.505111 -0.085803 101
-0.807954 5.539399 -0.496655 101
-0.269130 5.454325 -0.347402 100
-0.450129 5.539147 0.169794 101
-0.807740 5.544428 -0.237772 100
-1.173825 5.564989 -0.570690 101
-0.268252 5.455065 -0.263298 101
-0.621601 5.491302 -0.742285 101
-0.809547 5.563350 -0.152125 101
-1.171276 5.557505 -0.481920 100
-0.093320 5.402114 -0.521194 94
-0.268237 5.473419 -0.011477 101
-0.622254 5.505306 -0.416582 101
-1.183562 5.620459 -0.221656 100
-0.092610 5.413482 -0.438476 80
-0.267689 5.480984 0.072793 101
-0.625560 5.542860 -0.333351 100
-0.988740 5.564204 -0.678887 64
-1.182361 5.619411 -0.133323 101
-0.440741 5.491870 -0.339873 101
-0.620674 5.524429 0.095095 100
-0.986645 5.568630 -0.229120 101
-0.437316 5.460652 -0.253551 101
-0.797437 5.518984 -0.699507 92
-0.989695 5.591290 -0.142739 101
-0.262726 5.473271 -0.517972 100
-0.442287 5.534355 -0.000969 101
-0.802891 5.563299 -0.411789 100
-0.261207 5.460701 -0.432178 100
-0.441629 5.537778 0.084361 101
-0.801059 5.557179 -0.324720 101
-1.178076 5.627061 -0.670273 101
-0.261346 5.482819 -0.180172 98
-0.614062 5.498727 -0.587391 100
-0.799702 5.554342 -0.065624 101
-1.168375 5.585380 -0.396019 89
-0.085429 5.417455 -0.606783 100
-0.259961 5.472995 -0.095639 100
-0.616277 5.526942 -0.504151 101
-0.802239 5.578574 0.020657 101
-1.169364 5.594779 -0.308550 101
-0.084621 5.423701 -0.355531 101
-0.259357 5.479618 0.157064 101
-0.433309 5.468061 -0.805289 101
-0.616385 5.536315 -0.247111 100
-0.977456 5.549174 -0.576317 100
-0.083726 5.424541 -0.271980 101
-0.259614 5.504547 0.242528 73
-0.433871 5.486804 -0.595003 101
-0.615364 5.535563 -0.161412 100
-0.981400 5.577024 -0.491440 101
-0.427257 5.447897 -0.505976 101
-0.611553 5.533794 -0.075798 101
-0.975544 5.564783 -0.402989 101
-0.429697 5.490858 -0.424757 101
-0.614187 5.566209 0.009774 101
-0.976250 5.574321 -0.316396 101
-0.251152 5.438569 -0.886086 87
-0.429530 5.500621 -0.170499 101
-0.788935 5.537787 -0.582987 101
-0.977478 5.586864 -0.055436 101
-0.250911 5.453274 -0.600755 83
-0.429379 5.510630 -0.085865 101
-0.788611 5.542186 -0.496655 101
-0.249533 5.443269 -0.346640 100
-0.427994 5.504811 0.168695 101
-0.787812 5.543258 -0.237603 101
-1.156001 5.576849 -0.571488 101
-0.248831 5.447987 -0.262912 101
-0.602416 5.493440 -0.742285 101
-0.787861 5.550309 -0.151692 101
-1.153473 5.569368 -0.482597 101
-0.074279 5.390463 -0.520042 100
-0.249111 5.474323 -0.011477 100
-0.602581 5.503482 -0.416282 101
-1.160677 5.608903 -0.221039 97
-0.073581 5.405799 -0.437830 80
-0.248350 5.477891 0.072740 101
-0.605750 5.541043 -0.333113 101
-0.967924 5.559801 -0.677933 64
-1.162713 5.623509 -0.133323 101
-0.420916 5.485416 -0.339380 101
-0.600912 5.522591 0.095026 100
-0.963741 5.552358 -0.228310 101
-0.418511 5.466133 -0.253736 101
-0.778121 5.521740 -0.699507 92
-0.968075 5.582900 -0.142437 101
-0.242859 5.458244 -0.516466 99
-0.422609 5.531881 -0.000968 101
-0.782858 5.562124 -0.411497 101
-0.241204 5.441663 -0.430602 100
-0.421326 5.527326 0.084179 101
-0.780486 5.552041 -0.324258 101
-1.151963 5.600018 -0.666568 101
-0.242143 5.483700 -0.180172 98
-0.594801 5.500844 -0.587391 100
-0.780245 5.557108 -0.065624 101
-1.148807 5.589437 -0.396019 100
-0.066256 5.401822 -0.605002 101
-0.240435 5.465881 -0.095500 100
-0.595201 5.513225 -0.502707 101
-0.783802 5.589272 0.020686 101
-1.147348 5.587104 -0.307903 101
-0.065615 5.423964 -0.355531 101
-0.240329 5.484488 0.157178 101
-0.413548 5.461653 -0.804127 101
-0.597838 5.546387 -0.247465 101
-0.957329 5.548644 -0.575910 101
-0.064522 5.408822 -0.271179 101
-0.413738 5.476395 -0.593713 101
-0.594246 5.521784 -0.160949 100
-0.957108 5.552940 -0.489019 101
-0.406750 5.429496 -0.504132 101
-0.592232 5.535895 -0.075798 101
-0.954763 5.560290 -0.402420 101
-0.410230 5.488347 -0.424450 101
-0.592205 5.544455 0.009732 101
-0.954085 5.561950 -0.315503 100
-0.231829 5.431523 -0.884801 93
-0.409732 5.494113 -0.170251 101
-0.766863 5.520804 -0.580914 101
-0.957295 5.586299 -0.055397 101
-0.230861 5.430283 -0.598130 83
-0.410437 5.516084 -0.085927 101
-0.767070 5.529119 -0.495241 101
-0.230700 5.448095 -0.346894 99
-0.409368 5.514246 0.168939 101
-0.767909 5.542016 -0.237433 100
-1.138910 5.592550 -0.572686 101
-0.229476 5.440838 -0.262527 101
-0.582400 5.487625 -0.741220 101
-0.767934 5.549064 -0.151584 101
-1.136409 5.585078 -0.483611 101
-0.055462 5.390690 -0.520042 100
-0.230001 5.475159 -0.011477 101
-0.583366 5.505551 -0.416282 101
-1.142684 5.620754 -0.221347 89
-0.054711 5.406024 -0.437830 80
-0.229729 5.490713 0.072900 101
-0.585984 5.539153 -0.332874 100
-0.949178 5.567060 -0.678410 62
-1.141484 5.619696 -0.133137 101
-0.400891 5.474907 -0.338641 101
-0.582469 5.532609 0.095163 100
-0.946364 5.567509 -0.228796 101
-0.400302 5.479516 -0.254291 101
-0.758302 5.520491 -0.699009 92
-0.947243 5.578360 -0.142236 101
-0.223479 5.451100 -0.515714 100
-0.402425 5.521354 -0.000966 101
-0.762353 5.556919 -0.410913 101
-0.222533 5.450440 -0.431232 100
-0.402030 5.528763 0.084179 101
-0.760559 5.550775 -0.324027 101
-1.127687 5.580639 -0.663788 101
-0.222675 5.476523 -0.179910 86
-0.573941 5.487062 -0.585702 100
-0.759758 5.551873 -0.065530 101
-1.125341 5.573856 -0.394635 100
-0.047295 5.390095 -0.603667 100
-0.221192 5.462691 -0.095430 100
-0.575539 5.511306 -0.502345 101
-0.762121 5.576121 0.020628 101
-1.127048 5.587160 -0.307687 101
-0.046681 5.424160 -0.355531 101
-0.220861 5.477303 0.156949 101
-0.394766 5.467010 -0.804708 101
-0.579302 5.556389 -0.247820 101
-0.935966 5.540181 -0.574689 101
-0.045877 5.436978 -0.272581 38
-0.395190 5.485739 -0.594573 101
-0.576210 5.535756 -0.161296 100
-0.937719 5.556247 -0.489019 101
-0.388930 5.446774 -0.505607 101
-0.572493 5.533951 -0.075744 101
-0.937333 5.575392 -0.403274 101
-0.389653 5.469855 -0.422912 101
-0.573258 5.550467 0.009739 101
-0.935326 5.569185 -0.315726 100
-0.213023 5.436244 -0.885443 93
-0.390835 5.499498 -0.170375 101
-0.748654 5.531332 -0.581743 101
-0.937127 5.585662 -0.055358 101
-0.211749 5.427082 -0.597692 83
-0.389766 5.497536 -0.085617 101
-0.746164 5.519917 -0.494180 101
-0.211216 5.436900 -0.346133 100
-0.390117 5.515641 0.168939 101
-0.746955 5.532781 -0.236924 101
-1.116259 5.580880 -0.571089 101
-0.210637 5.445599 -0.262720 101
-0.561623 5.473850 -0.739090 101
-0.749094 5.555674 -0.151692 101
-1.113783 5.573377 -0.482258 101
-0.036618 5.386869 -0.519657 100
-0.210426 5.463938 -0.011452 101
-0.562925 5.495650 -0.415382 101
-1.121492 5.616869 -0.221039 100
-0.035893 5.414155 -0.438476 80
-0.210255 5.483488 0.072793 101
-0.567052 5.545137 -0.333113 101
-0.927778 5.558588 -0.676979 64
-1.119514 5.611881 -0.132859 101
-0.381500 5.472291 -0.338395 101
-0.563558 5.538588 0.095232 101
-0.923644 5.551065 -0.227987 101
-0.380341 5.468922 -0.253736 101
-0.738501 5.519170 -0.698511 92
-0.926453 5.573743 -0.142035 101
-0.204449 5.451848 -0.515714 100
-0.382318 5.510754 -0.000964 101
-0.740838 5.543729 -0.409744 100
-0.202911 5.435245 -0.429971 100
-0.382452 5.526143 0.084118 101
-0.739594 5.541521 -0.323334 101
-1.098147 5.533879 -0.657767 101
-0.202815 5.457292 -0.179254 90
-0.554384 5.485075 -0.585279 100
-0.738788 5.542597 -0.065390 101
-1.105101 5.573836 -0.394358 100
-0.028522 5.398178 -0.604557 101
-0.201975 5.459433 -0.095360 100
-0.556298 5.513282 -0.502345 101
-0.743707 5.586678 0.020657 101
-1.106763 5.587142 -0.307471 101
-0.027706 5.416307 -0.355008 101
-0.374866 5.456511 -0.802965 100
-0.557100 5.530546 -0.246579 101
-0.917270 5.547340 -0.575096 101
-1.111281 5.614910 -0.044956 0
-0.374952 5.471215 -0.592853 100
-0.555683 5.525798 -0.160949 100
-0.915720 5.543759 -0.487636 101
-0.369630 5.444126 -0.505238 101
-0.552363 5.527957 -0.075635 101
-0.916555 5.570759 -0.402705 101
-0.370548 5.471183 -0.422912 101
-0.551489 5.528553 0.009697 101
-0.913280 5.556653 -0.314833 101
-0.193760 5.429064 -0.884158 90
-0.370015 5.476895 -0.169634 101
-0.727779 5.522079 -0.580499 101
-0.915028 5.573112 -0.055202 101
-0.192665 5.423815 -0.597255 83
-0.370038 5.490881 -0.085493 101
-0.726373 5.518538 -0.493827 101
-0.192103 5.433615 -0.345879 100
-0.370333 5.508990 0.168695 101
-0.727124 5.531392 -0.236755 100
-1.099846 5.600363 -0.572686 101
-0.191218 5.434322 -0.262142 101
-0.544870 5.499446 -0.742285 101
-0.728669 5.550324 -0.151476 101
-1.095869 5.585051 -0.482935 101
-0.017832 5.386964 -0.519657 100
-0.191230 5.460640 -0.011444 100
-0.542579 5.485672 -0.414482 101
-1.096515 5.593290 -0.219959 100
-0.017005 5.410260 -0.438153 80
-0.190858 5.476193 0.072687 101
-0.546147 5.531186 -0.332158 100
-0.908394 5.561789 -0.676979 57
-1.099174 5.611826 -0.132766 101
-0.361645 5.461635 -0.337656 101
-0.543089 5.528577 0.095026 101
-0.901091 5.534525 -0.227177 101
-0.359978 5.450278 -0.252812 101
-0.717739 5.509902 -0.697017 92
-0.904471 5.561148 -0.141633 101
-0.185063 5.440586 -0.514584 100
-0.363658 5.520034 -0.000966 101
-0.722049 5.550231 -0.410036 101
-0.184129 5.439903 -0.430287 100
-0.362955 5.523449 0.084057 101
-0.721847 5.555942 -0.324027 101
-1.078881 5.537667 -0.657767 101
-0.183692 5.453969 -0.179122 88
-0.536455 5.498847 -0.586546 100
-0.719500 5.545134 -0.065390 101
-1.084940 5.573730 -0.394081 100
-0.009731 5.390294 -0.603667 101
-0.182985 5.460103 -0.095360 100
-0.537118 5.515183 -0.502345 101
-0.723757 5.585264 0.020642 101
-1.086560 5.587037 -0.307256 100
-0.356663 5.469628 -0.804708 101
-0.537093 5.524495 -0.246224 101
-0.897976 5.550496 -0.575096 101
-1.097091 5.646225 -0.045176 40
-0.354898 5.456612 -0.591133 100
-0.537243 5.535656 -0.161180 100
-0.897715 5.554777 -0.488327 101
-0.349857 5.433459 -0.504132 101
-0.532679 5.525870 -0.075580 101
-0.894568 5.558168 -0.401566 101
-0.351704 5.476423 -0.423219 101
-0.534103 5.550353 0.009732 101
-0.893878 5.559808 -0.314833 101
-0.174808 5.429708 -0.884158 98
-0.350384 5.470173 -0.169387 101
-0.707993 5.520640 -0.580084 101
-0.895569 5.576272 -0.055202 101
-0.174113 5.436376 -0.598568 82
-0.350104 5.480165 -0.085306 101
-0.707612 5.524992 -0.494180 101
-0.906704 5.651641 0.031969 16
-0.173262 5.438242 -0.346133 100
-0.351863 5.522219 0.169061 101
-0.708826 5.541824 -0.237094 101
-1.080291 5.604168 -0.572686 101
-0.172248 5.434956 -0.262142 101
-0.524539 5.489475 -0.740687 101
-0.709290 5.552834 -0.151476 101
-1.075613 5.584928 -0.482597 101
0.000971 5.383012 -0.519273 100
-0.172420 5.469271 -0.011461 100
-0.524185 5.495474 -0.415082 101
-0.708999 5.557947 0.106605 9
-1.077739 5.601008 -0.220113 94
0.001879 5.406300 -0.437830 48
-0.526458 5.529084 -0.331919 101
-0.886468 5.549239 -0.675071 64
-1.075049 5.592066 -0.132209 101
-0.343578 5.478803 -0.338641 101
-0.523787 5.530439 0.095026 101
-0.881766 5.537637 -0.227177 101
-0.341200 5.455489 -0.252996 101
-0.523040 5.532401 0.180463 1
-0.698502 5.512373 -0.697017 92
-0.885682 5.568221 -0.141734 101
-0.165949 5.437219 -0.514208 99
-0.343640 5.509293 -0.000963 101
-0.699666 5.528971 -0.408282 100
-0.165018 5.436527 -0.429971 100
-0.343176 5.516699 0.083936 101
-0.699945 5.538619 -0.322872 101
-1.061037 5.549204 -0.658693 101
-0.164774 5.458572 -0.179254 98
-0.516885 5.496726 -0.586124 100
-0.700140 5.547611 -0.065390 101
-1.066226 5.581403 -0.394358 101
0.009098 5.398245 -0.604557 101
-0.163324 5.440720 -0.095011 100
-0.517491 5.513059 -0.501984 101
-0.702756 5.575850 0.020598 101
-1.064056 5.575102 -0.306393 101
-0.337081 5.462940 -0.803546 101
-0.518178 5.530314 -0.246402 101
-0.877352 5.545736 -0.574282 100
-1.073629 5.630374 -0.045019 79
-0.336093 5.461786 -0.591563 100
-0.516800 5.525555 -0.160833 101
-0.875832 5.542132 -0.486944 101
-0.330404 5.426696 -0.503395 101
-0.511908 5.511766 -0.075362 101
-0.872680 5.545491 -0.400428 101
-0.331135 5.453732 -0.421374 101
-0.512879 5.532269 0.009697 101
-0.871985 5.547113 -0.313940 101
-0.155854 5.430285 -0.884158 98
-0.331045 5.467372 -0.169263 101
-0.686749 5.507286 -0.578426 101
-0.876719 5.583316 -0.055241 101
-0.155135 5.436951 -0.598568 83
-0.330731 5.477362 -0.085244 101
-0.688322 5.527428 -0.494180 101
-0.880772 5.615255 0.031745 100
-0.153712 5.418862 -0.344863 100
-0.330662 5.491487 0.168084 101
-0.688490 5.536333 -0.236755 101
-1.054065 5.572709 -0.569092 101
-0.153163 5.431530 -0.261949 100
-0.504647 5.483377 -0.739622 101
-0.688424 5.543372 -0.151152 101
-1.055372 5.584732 -0.482258 101
0.019717 5.371031 -0.518121 100
-0.152767 5.449847 -0.011419 20
-0.504269 5.489326 -0.414482 101
-0.690086 5.564357 0.106681 67
-1.052991 5.577242 -0.219033 88
-0.506425 5.522935 -0.331442 100
-0.867093 5.552299 -0.675071 59
-1.055522 5.595785 -0.132209 101
-0.323035 5.456056 -0.337164 101
-0.503027 5.516302 0.094753 101
-0.861816 5.536732 -0.227015 101
-0.321919 5.452658 -0.252812 101
-0.503000 5.526230 0.180204 26
-0.678771 5.510839 -0.696520 92
-0.863782 5.555473 -0.141332 101
-0.146969 5.437765 -0.514208 100
-0.324172 5.506466 -0.000963 101
-0.682310 5.547217 -0.409451 101
-0.145933 5.433084 -0.429656 100
-0.323917 5.517863 0.083936 101
-0.681095 5.544991 -0.323103 101
-1.048253 5.588019 -0.662862 101
-0.145932 5.467107 -0.179516 100
-0.496978 5.490573 -0.585279 100
-0.679310 5.538112 -0.065249 101
-1.047472 5.589013 -0.394635 101
0.027900 5.390231 -0.603667 101
-0.144225 5.437259 -0.094941 100
-0.497527 5.506896 -0.501262 101
-0.682316 5.570329 0.020569 101
-1.043118 5.570930 -0.305962 101
-0.318010 5.464083 -0.803546 100
-0.498870 5.532090 -0.246402 100
-0.859204 5.556630 -0.575096 101
-1.053234 5.630156 -0.044987 101
-0.316565 5.454986 -0.590703 100
-0.495717 5.507414 -0.160253 101
-0.858306 5.556971 -0.487982 101
-0.311246 5.423839 -0.503026 101
-0.492680 5.513518 -0.075362 101
-0.853938 5.552445 -0.400713 101
-0.312333 5.458836 -0.421681 101
-0.492863 5.526056 0.009683 101
-0.853838 5.558016 -0.314387 101
-0.136702 5.422902 -0.882873 95
-0.312645 5.480469 -0.169634 101
-0.668959 5.521498 -0.579670 101
-0.854194 5.566574 -0.055045 101
-0.135756 5.421560 -0.596817 83
-0.311835 5.482476 -0.085306 101
-0.667585 5.517931 -0.493120 101
-0.858740 5.602480 0.031656 100
-0.135086 5.431338 -0.345625 100
-0.311937 5.500591 0.168328 101
-0.668674 5.534736 -0.236585 101
-1.036776 5.588095 -0.570290 101
-0.134091 5.428038 -0.261757 101
-0.311731 5.513371 0.253658 100
-0.485840 5.489056 -0.740155 101
-0.669536 5.549712 -0.151260 101
-1.032952 5.572709 -0.480906 101
0.038484 5.370930 -0.518121 21
-0.484735 5.487081 -0.414182 101
-0.671118 5.570704 0.106757 90
-1.034225 5.584818 -0.219188 100
-0.487470 5.528649 -0.331681 100
-0.846484 5.547444 -0.674117 64
-1.034503 5.591576 -0.132023 101
-0.303726 5.453166 -0.336917 101
-0.482679 5.506075 0.094548 101
-0.842443 5.539713 -0.227015 101
-0.302616 5.449761 -0.252627 101
-0.483660 5.527956 0.180204 44
-0.659484 5.513180 -0.696520 91
-0.844338 5.558462 -0.141332 101
-0.128029 5.442227 -0.514584 100
-0.304897 5.507567 -0.000963 101
-0.662417 5.545610 -0.409159 100
-0.126910 5.433562 -0.429656 100
-0.303935 5.506983 0.083754 101
-0.661204 5.543377 -0.322872 101
-1.022931 5.560395 -0.659156 101
-0.126507 5.455595 -0.179122 100
-0.477401 5.488317 -0.584857 100
-0.659437 5.536485 -0.065203 101
-1.025007 5.576949 -0.393527 101
0.046817 5.394074 -0.604112 100
-0.125637 5.457723 -0.095290 52
-0.478577 5.512574 -0.501623 101
-0.661381 5.560769 0.020525 101
-1.022875 5.570622 -0.305747 101
-0.297780 5.445406 -0.800641 101
-0.478102 5.517879 -0.245693 100
-0.836757 5.539934 -0.573061 101
-1.023394 5.578733 -0.044547 101
-0.297226 5.452091 -0.590274 100
-0.476754 5.513101 -0.160369 101
-0.836445 5.544183 -0.486598 101
-0.292097 5.420915 -0.502657 101
-0.472747 5.507235 -0.075253 101
-0.834552 5.555392 -0.400713 101
-0.293276 5.459893 -0.421681 101
-0.473570 5.527743 0.009683 101
-0.832061 5.545165 -0.313494 101
-0.117858 5.427293 -0.883516 98
-0.292230 5.457573 -0.168892 101
-0.647358 5.504044 -0.577597 101
-0.835944 5.577433 -0.055124 101
-0.116830 5.422001 -0.596817 83
-0.292056 5.471550 -0.085120 101
-0.649249 5.528142 -0.493827 101
-0.836217 5.585665 0.031544 101
-0.115871 5.419803 -0.344863 100
-0.291672 5.481684 0.167718 101
-0.648419 5.529098 -0.236246 101
-1.013702 5.572102 -0.568294 101
-0.114888 5.416490 -0.261179 101
-0.292272 5.510436 0.253475 101
-0.466005 5.482818 -0.739090 101
-0.650625 5.555987 -0.151368 101
-1.014206 5.580202 -0.481244 101
-0.465916 5.492714 -0.414482 101
-0.653526 5.588902 0.107061 100
-1.015438 5.592327 -0.219342 99
-0.467495 5.522360 -0.331204 101
-0.827700 5.554293 -0.674594 64
-1.013551 5.587283 -0.131837 101
-0.284689 5.454193 -0.336917 101
-0.463121 5.503741 0.094479 101
-0.820753 5.526806 -0.226367 101
-0.282968 5.438814 -0.252072 101
-0.464696 5.533595 0.180333 70
-0.639777 5.511507 -0.696022 92
-0.823170 5.549509 -0.141030 101
-0.108792 5.430696 -0.513455 100
-0.284841 5.492619 -0.000960 101
-0.641677 5.536000 -0.408282 101
-0.107785 5.425998 -0.429026 100
-0.285123 5.515999 0.083875 101
-0.641391 5.541684 -0.322641 101
-1.006336 5.579571 -0.661009 101
-0.107305 5.448009 -0.178860 90
-0.457579 5.482023 -0.584013 100
-0.639189 5.530807 -0.065109 101
-1.004826 5.576565 -0.393250 101
0.065742 5.401828 -0.605002 22
-0.459001 5.510241 -0.501262 101
-0.642883 5.570991 0.020554 101
-1.003424 5.574159 -0.305747 101
-0.278366 5.438507 -0.799479 100
-0.457514 5.503585 -0.244984 100
-0.817414 5.542820 -0.573061 101
-1.006039 5.594081 -0.044642 101
-0.277990 5.449124 -0.589844 101
-0.457176 5.510747 -0.160253 101
-0.816506 5.543127 -0.486252 101
-0.273373 5.425879 -0.503026 101
-0.453520 5.508851 -0.075253 101
-0.812260 5.538533 -0.399290 101
-0.273815 5.452917 -0.421066 101
-0.453945 5.525376 0.009676 101
-0.811542 5.540132 -0.313047 101
-0.098768 5.419776 -0.882231 100
-0.273378 5.462553 -0.169016 101
-0.629043 5.514175 -0.578426 101
-0.817628 5.588233 -0.055202 101
-0.098047 5.430326 -0.597692 83
-0.273353 5.480525 -0.085244 101
-0.629949 5.530375 -0.493827 101
-0.816136 5.584592 0.031522 101
-0.096809 5.412192 -0.344355 100
-0.273528 5.502635 0.168328 101
-0.629115 5.531328 -0.236246 101
-0.994944 5.579524 -0.568693 101
-0.096193 5.428842 -0.261757 101
-0.274024 5.531377 0.254392 101
-0.446864 5.484411 -0.739090 101
-0.630324 5.550278 -0.151152 101
-0.994022 5.579784 -0.480906 101
-0.445770 5.482380 -0.413583 101
-0.634914 5.599097 0.107213 101
-0.994510 5.587967 -0.219033 100
-0.448215 5.523958 -0.331204 101
-0.807735 5.553218 -0.674117 64
-0.993342 5.586850 -0.131744 101
-0.265066 5.443191 -0.336179 101
-0.444550 5.513298 0.094616 101
-0.802602 5.537548 -0.226691 101
-0.264369 5.447750 -0.252442 101
-0.447942 5.567063 0.181372 71
-0.619647 5.505818 -0.695026 92
-0.803220 5.548391 -0.140930 101
-0.089769 5.427062 -0.513079 100
-0.265860 5.497575 -0.000961 101
-0.622794 5.542171 -0.408575 101
-0.088909 5.430328 -0.429341 100
-0.265482 5.508971 0.083754 101
-0.622043 5.543890 -0.322641 101
-0.983396 5.563488 -0.658693 101
-0.438757 5.487552 -0.584435 100
-0.619434 5.529029 -0.065062 101
-0.983272 5.568250 -0.392419 101
-0.439130 5.503868 -0.500540 101
-0.622544 5.565251 0.020525 101
-0.983266 5.573694 -0.305531 101
-0.260323 5.459211 -0.802384 101
-0.440203 5.529049 -0.246047 101
-0.798061 5.545640 -0.573061 100
-0.987200 5.601499 -0.044673 101
-0.258779 5.446089 -0.589414 101
-0.438254 5.516295 -0.160369 101
-0.797719 5.549888 -0.486598 101
-0.254073 5.418843 -0.502288 101
-0.433674 5.502425 -0.075145 101
-0.795197 5.557131 -0.400428 101
-0.254230 5.441888 -0.420144 101
-0.433723 5.514963 0.009655 101
-0.792773 5.546884 -0.313270 101
-0.079853 5.420088 -0.882231 98
-0.253754 5.451492 -0.168645 101
-0.609795 5.516337 -0.578426 101
-0.796990 5.583133 -0.055124 101
-0.078857 5.414733 -0.595942 83
-0.253848 5.473455 -0.085120 101
-0.608890 5.516699 -0.492413 101
-0.797199 5.591367 0.031544 101
-0.077908 5.412497 -0.344355 101
-0.253573 5.487581 0.167840 101
-0.607606 5.513629 -0.235398 101
-0.969289 5.547679 -0.565099 101
-0.077058 5.417160 -0.261179 101
-0.254884 5.536292 0.254576 101
-0.426779 5.474081 -0.737492 101
-0.610496 5.548471 -0.151043 101
-0.971099 5.563591 -0.479215 101
-0.425993 5.475951 -0.412983 101
-0.609669 5.549602 0.106224 100
-0.973606 5.583532 -0.218725 100
-0.428597 5.521510 -0.330965 101
-0.787205 5.548143 -0.673162 63
-0.969005 5.562710 -0.131095 101
-0.245843 5.440096 -0.335932 101
-0.424953 5.510831 0.094548 101
-0.781547 5.528450 -0.226205 101
-0.244945 5.440659 -0.252072 101
-0.428459 5.568597 0.181372 72
-0.600377 5.507953 -0.695026 92
-0.786037 5.567005 -0.141332 101
-0.070565 5.411415 -0.511573 100
-0.246078 5.486484 -0.000959 101
-0.603392 5.544317 -0.408575 101
-0.069793 5.422632 -0.428711 100
-0.246192 5.509867 0.083754 101
-0.601334 5.534123 -0.321949 101
-0.963233 5.562982 -0.658230 101
-0.418930 5.481122 -0.583590 100
-0.600066 5.531165 -0.065062 101
-0.963084 5.567728 -0.392142 101
-0.420149 5.509345 -0.500901 101
-0.602182 5.559444 0.020496 101
-0.961694 5.565297 -0.304884 101
-0.239444 5.420553 -0.796574 100
-0.419612 5.514620 -0.245338 101
-0.776410 5.532640 -0.571433 100
-0.965523 5.593099 -0.044579 101
-0.240037 5.454908 -0.590274 101
-0.417099 5.493876 -0.159674 101
-0.777154 5.544757 -0.485907 101
-0.235328 5.423676 -0.502657 101
-0.414765 5.507894 -0.075199 101
-0.773038 5.540115 -0.399005 101
-0.235233 5.442742 -0.420144 101
-0.415069 5.524421 0.009669 101
-0.772303 5.541706 -0.312824 101
-0.060799 5.408491 -0.880303 98
-0.234723 5.452345 -0.168645 101
-0.589266 5.506564 -0.577182 101
-0.776393 5.577957 -0.055045 101
-0.060000 5.418952 -0.596380 83
-0.234912 5.478304 -0.085182 101
-0.590052 5.522752 -0.492766 101
-0.778779 5.602039 0.031589 101
-0.058971 5.408744 -0.344101 101
-0.234586 5.492427 0.167962 101
-0.589204 5.523664 -0.235737 101
-0.951932 5.562798 -0.566297 101
-0.058234 5.425386 -0.261564 27
-0.406491 5.459724 -0.735362 101
-0.589430 5.534665 -0.150611 101
-0.948986 5.551232 -0.477862 101
-0.406580 5.473427 -0.412683 101
-0.586911 5.519881 0.105615 100
-0.952091 5.575077 -0.218262 100
-0.408435 5.511026 -0.330249 101
-0.766745 5.542990 -0.672208 64
-0.950927 5.573943 -0.131280 101
-0.227018 5.444910 -0.336179 101
-0.405714 5.512281 0.094548 101
-0.761699 5.527185 -0.226044 101
-0.225621 5.433496 -0.251702 101
-0.406384 5.534174 0.180204 72
-0.579482 5.494227 -0.693034 92
-0.762783 5.541986 -0.140628 101
-0.051865 5.431539 -0.513455 100
-0.227256 5.495303 -0.000960 101
-0.582781 5.534487 -0.407698 101
-0.050752 5.410880 -0.427765 100
-0.226958 5.510693 0.083754 101
-0.582013 5.536189 -0.321949 101
-0.941152 5.550642 -0.656377 101
-0.399505 5.478584 -0.583168 100
-0.580337 5.529248 -0.065016 101
-0.944310 5.574990 -0.392419 101
-0.399759 5.494885 -0.499456 101
-0.583189 5.565491 0.020510 101
-0.941595 5.564682 -0.304668 101
-0.221004 5.433218 -0.798317 101
-0.400071 5.512065 -0.245161 101
-0.758711 5.547144 -0.572654 100
-0.947994 5.608267 -0.044673 101
-0.219867 5.427898 -0.587264 100
-0.398785 5.507262 -0.160022 101
-0.756176 5.535591 -0.484869 101
-0.215919 5.412525 -0.501551 101
-0.394963 5.501329 -0.075090 101
-0.751544 5.526966 -0.397867 101
-0.215916 5.435560 -0.419528 101
-0.395783 5.525836 0.009669 101
-0.752955 5.544368 -0.312824 101
-0.041950 5.412618 -0.880945 99
-0.215216 5.441146 -0.168275 101
-0.570040 5.508588 -0.577182 101
-0.756918 5.580634 -0.055045 101
-0.040873 5.391297 -0.593317 83
-0.215001 5.459109 -0.084871 101
-0.569952 5.516852 -0.492060 101
-0.756535 5.584905 0.031477 101
-0.040032 5.400934 -0.343593 85
-0.214003 5.457257 0.166862 30
-0.569920 5.525687 -0.235737 101
-0.932509 5.566087 -0.566297 101
-0.039238 5.417566 -0.261179 14
-0.387431 5.461109 -0.735362 101
-0.569698 5.532711 -0.150502 101
-0.930261 5.558442 -0.478200 101
-0.386908 5.466855 -0.412083 101
-0.569275 5.537809 0.105920 100
-0.932625 5.578366 -0.218262 100
-0.388633 5.504453 -0.329772 101
-0.746331 5.537761 -0.671254 64
-0.928171 5.557507 -0.130816 100
-0.208010 5.445670 -0.336179 101
-0.386750 5.517653 0.094616 101
-0.741869 5.525849 -0.225882 101
-0.206805 5.438243 -0.251887 101
-0.384275 5.495677 0.178905 74
-0.559495 5.488319 -0.692039 92
-0.743433 5.544614 -0.140628 101
-0.032760 5.407794 -0.511196 100
-0.207467 5.480074 -0.000957 101
-0.561439 5.516644 -0.406237 101
-0.031864 5.411025 -0.427765 101
-0.207269 5.499461 0.083572 101
-0.560666 5.518322 -0.320794 101
-0.921121 5.549974 -0.655914 101
-0.379553 5.468041 -0.581901 100
-0.560226 5.523281 -0.064922 101
-0.920928 5.554632 -0.390758 101
-0.379475 5.480350 -0.498012 101
-0.561340 5.543615 0.020422 101
-0.920860 5.560053 -0.304237 101
-0.201449 5.418138 -0.795993 101
-0.379726 5.497482 -0.244452 101
-0.738292 5.541870 -0.571840 100
-0.925800 5.595757 -0.044547 101
-0.201507 5.444529 -0.588984 101
-0.379559 5.508621 -0.160022 101
-0.736323 5.534246 -0.484523 101
-0.196995 5.413247 -0.501551 101
-0.375456 5.498686 -0.075036 101
-0.732217 5.529559 -0.397867 101
-0.197068 5.440267 -0.419836 101
-0.376201 5.523194 0.009662 101
-0.733055 5.543005 -0.312600 101
-0.023050 5.412731 -0.880945 98
-0.196070 5.437869 -0.168151 101
-0.550406 5.506586 -0.576767 101
-0.734284 5.559450 -0.054811 101
-0.022106 5.403335 -0.594630 83
-0.195517 5.447835 -0.084685 101
-0.550300 5.514843 -0.491706 101
-0.736516 5.583545 0.031455 101
-0.021288 5.424992 -0.345117 14
-0.549059 5.511734 -0.235059 101
-0.908582 5.541812 -0.563501 101
-0.368659 5.466382 -0.735895 101
-0.550408 5.534663 -0.150502 101
-0.909591 5.553784 -0.477524 101
-0.366790 5.452251 -0.410883 101
-0.547609 5.515881 0.105463 101
-0.908668 5.553970 -0.217182 100
-0.369733 5.509756 -0.330010 101
-0.727045 5.540326 -0.671254 63
-0.908815 5.560705 -0.130816 101
-0.188666 5.434390 -0.335440 101
-0.366507 5.503002 0.094342 100
-0.720068 5.508579 -0.225072 101
-0.187499 5.426949 -0.251332 101
-0.366507 5.516924 0.179554 87
-0.541593 5.502079 -0.693532 92
-0.724169 5.547163 -0.140628 101
-0.013965 5.399910 -0.510444 100
-0.188441 5.480762 -0.000957 101
-0.543064 5.526500 -0.406821 101
-0.013109 5.419077 -0.428395 96
-0.188186 5.500147 0.083572 56
-0.541906 5.524209 -0.321025 101
-0.902496 5.557058 -0.656377 101
-0.360328 5.465355 -0.581479 100
-0.540290 5.517230 -0.064828 101
-0.902939 5.565670 -0.391311 101
-0.360742 5.485608 -0.498373 101
-0.541736 5.541546 0.020408 101
-0.899669 5.551383 -0.303590 101
-0.182548 5.414847 -0.795412 101
-0.360422 5.494777 -0.244274 101
-0.718069 5.536501 -0.571026 100
-0.903856 5.583136 -0.044422 101
-0.182260 5.433270 -0.587694 101
-0.359183 5.489953 -0.159442 101
-0.717674 5.540714 -0.484869 101
-0.178229 5.417882 -0.501919 101
-0.355742 5.491981 -0.074927 101
-0.712401 5.528124 -0.397582 101
-0.177815 5.432950 -0.419221 101
-0.355372 5.500524 0.009620 101
-0.713701 5.545531 -0.312600 101
-0.004150 5.404882 -0.879660 99
-0.177348 5.446512 -0.168398 101
-0.530799 5.504514 -0.576353 101
-0.716913 5.577848 -0.054967 101
-0.003240 5.395427 -0.593755 83
-0.176370 5.444487 -0.084623 101
-0.531046 5.516730 -0.491706 101
-0.716512 5.582115 0.031433 101
-0.530198 5.517596 -0.235228 100
-0.891122 5.556739 -0.564699 101
-0.349575 5.467636 -0.735895 101
-0.530703 5.532570 -0.150394 101
-0.889569 5.552990 -0.477186 101
-0.348517 5.465440 -0.411783 101
-0.528351 5.517758 0.105463 101
-0.716643 5.605404 -1.624891 4
-0.891170 5.568948 -0.217645 94
-0.349991 5.503044 -0.329533 101
-0.707701 5.542830 -0.671254 59
-0.889399 5.563843 -0.130816 101
-0.169197 5.419053 -0.334455 101
-0.346540 5.492273 0.094137 101
-0.701340 5.515024 -0.225234 101
-0.168430 5.423576 -0.251147 101
-0.346243 5.502210 0.179035 94
-0.521259 5.492083 -0.692039 92
-0.703793 5.541723 -0.140427 101
0.004891 5.407890 -0.511196 100
-0.168938 5.469391 -0.000955 101
-0.523017 5.520419 -0.406237 101
-0.521868 5.518116 -0.320563 101
-0.879976 5.540555 -0.654061 101
-0.341743 5.474520 -0.582323 100
-0.521028 5.519082 -0.064828 101
-0.883506 5.568788 -0.391311 101
-0.341344 5.482857 -0.498012 101
-0.522389 5.543403 0.020408 101
-0.879035 5.546600 -0.303159 101
-0.163646 5.415452 -0.795412 101
-0.341239 5.496001 -0.244274 101
-0.699237 5.542922 -0.571433 101
-0.885613 5.594158 -0.044484 101
-0.163174 5.429898 -0.587264 100
-0.339276 5.479201 -0.159095 101
-0.697332 5.535278 -0.484177 101
-0.160026 5.410481 -0.501182 101
-0.337038 5.485146 -0.074818 101
-0.693568 5.526497 -0.397298 101
-0.159798 5.433509 -0.419221 101
-0.337130 5.501672 0.009620 101
-0.693321 5.532016 -0.311707 101
0.013784 5.408815 -0.880303 96
-0.159168 5.443074 -0.168275 101
-0.512911 5.510205 -0.576767 101
-0.697418 5.572257 -0.054889 101
0.014609 5.379504 -0.592004 83
-0.158315 5.445042 -0.084623 101
-0.511274 5.502592 -0.490292 101
-0.696013 5.568584 0.031343 101
-0.512267 5.523303 -0.235398 101
-0.872073 5.555732 -0.564300 101
-0.330483 5.452936 -0.733765 101
-0.511248 5.522356 -0.150070 101
-0.870532 5.551972 -0.476847 101
-0.329429 5.450640 -0.410583 101
-0.508579 5.503551 0.105159 101
-0.698051 5.607749 -1.624891 101
-0.871461 5.563975 -0.217337 100
-0.331740 5.504174 -0.329533 101
-0.688337 5.537264 -0.670300 64
-0.870944 5.566762 -0.130816 101
-0.151448 5.427566 -0.334947 101
-0.328802 5.501377 0.094274 101
-0.683047 5.517319 -0.225234 101
-0.150444 5.424105 -0.251147 101
-0.328709 5.515301 0.179425 100
-0.503406 5.497733 -0.692537 92
-0.684431 5.536090 -0.140226 101
0.022774 5.395898 -0.510067 94
-0.503619 5.510205 -0.405360 101
-0.687492 5.568491 0.117529 14
-0.502478 5.507885 -0.319870 101
-0.860988 5.539517 -0.653598 101
-0.322649 5.459740 -0.580634 100
-0.501998 5.512813 -0.064735 101
-0.863198 5.559857 -0.390481 101
-0.322691 5.476006 -0.497289 101
-0.502555 5.529171 0.020349 101
-0.860025 5.545537 -0.302943 101
-0.145580 5.412008 -0.794831 101
-0.322778 5.493114 -0.244097 101
-0.678912 5.529412 -0.569805 100
-0.861546 5.561490 -0.044202 101
-0.145167 5.430409 -0.587264 100
-0.321105 5.480296 -0.159095 100
-0.678488 5.533604 -0.483832 101
-0.868570 5.613036 0.042628 26
-0.141010 5.407026 -0.500813 101
-0.317169 5.474311 -0.074655 101
-0.673281 5.520967 -0.396728 101
-0.140712 5.430048 -0.418913 101
-0.317677 5.498823 0.009613 101
-0.674956 5.542333 -0.312154 101
0.032670 5.408734 -0.880303 99
-0.140162 5.443596 -0.168275 101
-0.491893 5.492149 -0.574694 101
-0.676026 5.558776 -0.054733 101
0.033408 5.383396 -0.592442 83
-0.139311 5.445561 -0.084623 101
-0.492067 5.504343 -0.490292 101
-0.675128 5.559067 0.031276 101
-0.491932 5.513114 -0.234889 101
-0.852085 5.554806 -0.563901 101
-0.311243 5.450098 -0.733232 101
-0.491992 5.524104 -0.150070 101
-0.849963 5.547094 -0.476171 101
-0.310887 5.459719 -0.411183 101
-0.491169 5.525208 0.105539 101
-0.673891 5.571984 -1.613837 90
-0.851463 5.563027 -0.217182 96
-0.312116 5.497323 -0.329056 101
-0.491820 5.542933 0.191407 27
-0.665714 5.512028 -0.666960 64
-0.848529 5.549997 -0.130352 101
-0.132671 5.432051 -0.335193 101
-0.309445 5.498494 0.094205 101
-0.663380 5.515693 -0.225072 101
-0.131688 5.428590 -0.251332 101
-0.309090 5.508427 0.179165 100
-0.484295 5.499450 -0.692537 92
-0.666139 5.546376 -0.140427 101
-0.485871 5.527817 -0.406529 101
-0.670525 5.590698 0.117948 101
-0.484399 5.521531 -0.320563 101
-0.841750 5.542473 -0.653598 101
-0.303921 5.464798 -0.581057 100
-0.482864 5.514522 -0.064735 101
-0.842701 5.554929 -0.389927 101
-0.303255 5.469137 -0.496567 101
-0.482678 5.522911 0.020320 101
-0.838990 5.536640 -0.302297 101
-0.126725 5.408524 -0.794250 101
-0.303954 5.498189 -0.244274 101
-0.658797 5.523830 -0.568991 100
-0.845853 5.588172 -0.044390 101
-0.126350 5.430880 -0.587264 100
-0.302115 5.481376 -0.159095 101
-0.659311 5.535922 -0.483832 101
-0.848519 5.612056 0.042598 53
-0.121102 5.403524 -0.500444 101
-0.296669 5.467450 -0.074546 101
-0.653041 5.523397 -0.396728 101
-0.120808 5.430527 -0.418913 101
-0.297520 5.499950 0.009613 101
-0.653233 5.532871 -0.311484 101
0.052379 5.396734 -0.878375 98
-0.119856 5.428085 -0.167780 101
-0.298638 5.537606 0.265407 52
-0.472781 5.505807 -0.575938 101
-0.655179 5.557244 -0.054694 101
0.053138 5.383237 -0.592442 83
-0.471549 5.502140 -0.489939 101
-0.654748 5.561504 0.031276 101
-0.469679 5.490989 -0.233872 100
-0.829364 5.542147 -0.562303 101
-0.290843 5.443284 -0.732167 101
-0.470381 5.509934 -0.149637 101
-0.828448 5.542288 -0.475495 101
-0.290450 5.452856 -0.410583 101
-0.470236 5.519001 0.105387 101
-0.652121 5.562962 -1.610521 101
-0.830477 5.562157 -0.217028 100
-0.292388 5.506405 -0.329533 100
-0.473872 5.572581 0.192369 100
-0.646431 5.522320 -0.667915 64
-0.829951 5.564935 -0.130630 101
-0.112595 5.424518 -0.334701 101
-0.289290 5.499591 0.094205 100
-0.643160 5.518087 -0.225072 101
-0.111544 5.417051 -0.250777 101
-0.288689 5.505530 0.179035 101
-0.463134 5.489323 -0.691043 92
-0.644420 5.536864 -0.140125 101
-0.462260 5.489808 -0.403606 101
-0.648183 5.577229 0.117613 101
-0.462486 5.503373 -0.319408 101
-0.819683 5.533730 -0.652208 101
-0.283477 5.457931 -0.580212 100
-0.462315 5.512269 -0.064688 101
-0.821168 5.550086 -0.389373 101
-0.283414 5.474190 -0.496928 101
-0.462766 5.528629 0.020334 101
-0.820443 5.551531 -0.302943 101
-0.106823 5.404995 -0.793669 101
-0.282358 5.471331 -0.243034 101
-0.636720 5.510396 -0.567363 100
-0.822445 5.571450 -0.044233 101
-0.106133 5.415402 -0.585545 100
-0.282022 5.482446 -0.159095 101
-0.638559 5.534343 -0.483486 101
-0.825610 5.599300 0.042477 87
-0.102955 5.391949 -0.499338 101
-0.278537 5.468403 -0.074546 101
-0.633355 5.513641 -0.395875 101
-0.102724 5.426910 -0.418606 101
-0.279280 5.500906 0.009613 101
-0.634427 5.531039 -0.311261 101
0.070223 5.392583 -0.877733 93
-0.101630 5.416461 -0.167410 101
-0.280475 5.542556 0.265598 80
-0.453539 5.495450 -0.574694 101
-0.634926 5.543491 -0.054537 101
-0.452647 5.495731 -0.489232 101
-0.637211 5.571593 0.031321 101
-0.451795 5.496500 -0.234041 101
-0.810405 5.540929 -0.561904 101
-0.272394 5.436300 -0.731102 101
-0.452434 5.515449 -0.149745 101
-0.808912 5.537117 -0.474818 101
-0.272565 5.457773 -0.410883 101
-0.451605 5.516544 0.105311 101
-0.632365 5.553635 -1.607205 101
-0.812028 5.564880 -0.217028 100
-0.273730 5.499368 -0.329056 101
-0.453763 5.554200 0.191682 101
-0.627666 5.520487 -0.667437 64
-0.809185 5.551828 -0.130259 101
-0.094537 5.420869 -0.334455 101
-0.270264 5.484542 0.093932 101
-0.623059 5.504304 -0.224424 101
-0.093441 5.409401 -0.250407 101
-0.270234 5.502464 0.178905 100
-0.444608 5.486873 -0.690545 92
-0.625606 5.534997 -0.140025 101
-0.444696 5.499263 -0.404191 101
-0.631030 5.591269 0.117864 101
-0.444233 5.504876 -0.319408 101
-0.803036 5.548214 -0.653598 101
-0.264411 5.438976 -0.578101 100
-0.443391 5.505798 -0.064595 101
-0.802188 5.548829 -0.389096 101
-0.264681 5.463162 -0.495845 101
-0.443789 5.522159 0.020305 101
-0.800888 5.546315 -0.302512 101
-0.088834 5.401363 -0.793088 101
-0.264598 5.480220 -0.243388 101
-0.620218 5.528295 -0.568991 100
-0.805678 5.586023 -0.044327 101
-0.087850 5.395843 -0.583395 100
-0.263648 5.479358 -0.158979 100
-0.619316 5.528509 -0.482794 101
-0.807608 5.605967 0.042507 87
-0.084034 5.384311 -0.498600 101
-0.259473 5.469341 -0.074546 101
-0.613248 5.507885 -0.395305 101
-0.083550 5.411284 -0.417375 101
-0.259715 5.493856 0.009599 101
-0.615573 5.537188 -0.311484 101
0.089171 5.400200 -0.879018 76
-0.260757 5.535519 0.265215 67
-0.434360 5.496999 -0.574694 101
-0.615137 5.541698 -0.054498 101
-0.433457 5.497278 -0.489232 101
-0.615552 5.553905 0.031209 101
-0.432906 5.502028 -0.234211 101
-0.790483 5.539786 -0.561504 101
-0.253393 5.437219 -0.731102 101
-0.431903 5.501051 -0.149312 101
-0.789555 5.539910 -0.474818 101
-0.252554 5.438770 -0.409384 101
-0.431688 5.510115 0.105159 101
-0.612520 5.551991 -1.606099 101
-0.790874 5.555814 -0.216565 100
-0.254673 5.504281 -0.329295 101
-0.432771 5.535826 0.190994 101
-0.607479 5.514754 -0.666483 64
-0.790320 5.558584 -0.130352 101
-0.075486 5.417175 -0.334208 101
-0.250862 5.481460 0.093863 101
-0.604640 5.514400 -0.224748 101
-0.074587 5.417686 -0.250777 101
-0.251125 5.507371 0.179035 100
-0.423836 5.468613 -0.688056 92
-0.606633 5.541131 -0.140125 101
-0.425712 5.504767 -0.404483 101
-0.611414 5.593448 0.117864 101
-0.423684 5.490475 -0.318484 101
-0.779673 5.523459 -0.650355 101
-0.246029 5.455766 -0.579790 100
-0.424671 5.515296 -0.064688 101
-0.784371 5.563465 -0.389927 101
-0.245309 5.460079 -0.495484 101
-0.424694 5.527672 0.020320 101
-0.781399 5.549094 -0.302512 101
-0.069696 5.389770 -0.791345 101
-0.245336 5.481116 -0.243388 101
-0.599495 5.518573 -0.567770 100
-0.783255 5.569016 -0.044170 101
-0.068875 5.396118 -0.583395 101
-0.244200 5.476256 -0.158863 100
-0.597723 5.510844 -0.481065 101
-0.787890 5.608772 0.042507 89
-0.065480 5.404484 -0.500444 101
-0.240380 5.470213 -0.074546 101
-0.594018 5.509992 -0.395305 101
-0.064660 5.411543 -0.417375 101
-0.240186 5.486737 0.009585 101
-0.595387 5.531361 -0.311037 101
0.107626 5.380119 -0.875805 37
-0.414570 5.490547 -0.573865 101
-0.594934 5.535857 -0.054420 101
-0.413666 5.490811 -0.488525 101
-0.597015 5.563974 0.031254 101
-0.412499 5.487565 -0.233533 100
-0.770592 5.538569 -0.561105 101
-0.234070 5.430149 -0.730037 101
-0.414194 5.522462 -0.149853 101
-0.769664 5.538685 -0.474480 101
-0.233054 5.427663 -0.408484 101
-0.412153 5.507600 0.105083 101
-0.593137 5.554096 -1.606099 100
-0.769827 5.546664 -0.216103 100
-0.234776 5.489179 -0.328340 101
-0.414040 5.545276 0.191269 101
-0.587804 5.512892 -0.666006 64
-0.768716 5.545465 -0.129980 101
-0.056493 5.409421 -0.333716 101
-0.231726 5.482302 0.093863 101
-0.583701 5.500579 -0.224100 101
-0.231058 5.488243 0.178386 91
-0.405038 5.474017 -0.688554 92
-0.585181 5.523333 -0.139623 101
-0.404439 5.478370 -0.402437 101
-0.588100 5.559756 0.117110 101
-0.405396 5.503868 -0.319177 101
-0.760388 5.526147 -0.650355 101
-0.226818 5.452617 -0.579367 100
-0.404537 5.504778 -0.064548 101
-0.761687 5.542449 -0.388265 101
-0.226413 5.464882 -0.495845 101
-0.404812 5.521142 0.020290 101
-0.760395 5.539917 -0.301865 101
-0.050919 5.393938 -0.791926 101
-0.225378 5.461976 -0.242502 101
-0.580644 5.524589 -0.568177 100
-0.763267 5.567753 -0.044139 101
-0.050113 5.404279 -0.584255 100
-0.224262 5.457101 -0.158283 100
-0.579315 5.520823 -0.481756 101
-0.765594 5.591673 0.042357 84
-0.046477 5.388749 -0.498969 101
-0.220960 5.463027 -0.074437 101
-0.575195 5.516000 -0.395590 101
-0.045702 5.403760 -0.416760 101
-0.221194 5.491539 0.009592 101
-0.575248 5.525461 -0.310591 101
0.125942 5.359976 -0.872592 17
-0.393973 5.472120 -0.571792 101
-0.574366 5.525965 -0.054303 101
-0.395068 5.500170 -0.489232 101
-0.576763 5.558067 0.031209 101
-0.393627 5.492958 -0.233702 101
-0.751254 5.541225 -0.561105 101
-0.214643 5.419049 -0.728440 101
-0.393488 5.503932 -0.149312 101
-0.751930 5.553186 -0.475495 101
-0.214264 5.432429 -0.408784 101
-0.393210 5.512995 0.105159 101
-0.577694 5.594371 -1.617153 61
-0.749926 5.545356 -0.215948 100
-0.214987 5.474006 -0.327386 100
-0.393546 5.530737 0.190719 101
-0.568964 5.518861 -0.666483 64
-0.748283 5.540188 -0.129795 101
-0.037638 5.413578 -0.333962 101
-0.212433 5.479081 0.093795 100
-0.564904 5.506559 -0.224262 101
-0.385369 5.467479 -0.687558 92
-0.565490 5.521364 -0.139522 101
-0.385033 5.475769 -0.402145 100
-0.568282 5.557796 0.117026 101
-0.385343 5.493299 -0.318484 101
-0.741094 5.528768 -0.650355 101
-0.207178 5.437476 -0.577678 100
-0.385040 5.502167 -0.064501 101
-0.741806 5.541120 -0.387988 101
-0.206883 5.453697 -0.494761 101
-0.384701 5.510551 0.020246 101
-0.739464 5.530660 -0.301219 101
-0.032090 5.394083 -0.791926 101
-0.206160 5.458736 -0.242325 101
-0.560552 5.518664 -0.567363 100
-0.742239 5.558489 -0.044045 101
-0.031271 5.408398 -0.584685 101
-0.204762 5.445864 -0.157936 101
-0.558834 5.510918 -0.480719 101
-0.740254 5.550699 0.042027 80
-0.028603 5.384890 -0.498600 101
-0.202416 5.451738 -0.074273 101
-0.555716 5.505967 -0.394736 101
-0.027794 5.403882 -0.416760 101
-0.202845 5.488245 0.009585 101
-0.555732 5.515416 -0.309921 101
-0.376102 5.477365 -0.572206 101
-0.556043 5.527839 -0.054303 101
-0.376008 5.489525 -0.488171 101
-0.558326 5.559950 0.031209 101
-0.374855 5.486259 -0.233363 101
-0.733387 5.547633 -0.561504 101
-0.196800 5.423693 -0.728972 101
-0.375218 5.505208 -0.149312 101
-0.730886 5.535895 -0.473804 101
-0.195649 5.417166 -0.407584 101
-0.374360 5.506290 0.105007 101
-0.732554 5.555741 -0.216257 92
-0.197090 5.482671 -0.327863 101
