# This PCD file was generated using the MATLAB® pcwrite function
# from Computer Vision Toolbox®.
# .PCD v.7 - Point Cloud Data file format
VERSION .7
FIELDS x y z intensity
SIZE 4 4 4 1
TYPE F F F U
COUNT 1 1 1 1
WIDTH 1466
HEIGHT 1
VIEWPOINT 0 0 0 1 0 0 0
POINTS 1466
DATA ascii
-2.462256 6.356369 -0.565218 91
-2.767136 6.525047 0.080409 101
-3.106049 6.197830 -0.320869 101
-3.773549 6.020970 -0.178625 100
-2.504049 6.467508 -0.254307 101
-2.854927 6.182285 -0.643701 101
-3.176403 6.340893 -0.001238 101
-3.501029 6.003051 -0.509111 100
-2.515615 6.500648 -0.148444 101
-2.866043 6.209117 -0.540617 101
-3.201825 6.394344 0.108594 100
-3.513594 6.026940 -0.403475 100
-2.920954 6.330895 -0.228857 100
-3.241884 5.993065 -0.723365 91
-3.582647 6.147778 -0.083211 101
-2.641914 6.241518 -0.759035 36
-2.937759 6.370152 -0.122446 100
-3.264720 6.037722 -0.622244 101
-3.601961 6.183326 0.026228 18
-2.679672 6.333707 -0.450758 101
-2.991162 6.488837 0.204572 100
-2.998626 5.996139 -0.984242 101
-3.327065 6.155510 -0.310395 100
-2.684092 6.347148 -0.345483 101
-3.006791 6.525648 0.316219 98
-3.024640 6.050718 -0.731286 101
-3.322195 6.148988 -0.202547 99
-2.699047 6.393445 -0.241131 101
-3.018759 6.562212 0.429141 48
-3.032702 6.076163 -0.628782 101
-3.342296 6.195278 -0.095837 99
-2.720854 6.448144 -0.135604 101
-3.053431 6.120287 -0.527486 101
-3.377625 6.263302 0.012420 100
-2.464050 6.398346 -0.462615 101
-2.775243 6.580151 0.190747 101
-2.931501 6.378214 -1.142466 22
-3.122447 6.261276 -0.216212 100
-2.485318 6.456831 -0.360168 101
-2.823357 6.145659 -0.744272 100
-3.138560 6.296253 -0.109289 101
-3.484874 6.002457 -0.615781 101
-2.868610 6.246950 -0.437300 101
-3.195250 6.412697 0.218900 101
-3.518469 6.062685 -0.297470 101
-2.885016 6.285483 -0.333408 101
-3.206173 5.955015 -0.908420 101
-3.537379 6.097645 -0.190752 100
-2.630752 6.249373 -0.654085 101
-2.933999 6.395055 -0.014736 90
-3.258870 6.055348 -0.517053 101
-2.642558 6.280389 -0.551808 101
-2.951005 6.434994 0.093910 86
-3.293381 6.121956 -0.415436 100
-2.716164 6.464503 -0.028148 101
-3.054459 6.145764 -0.423363 101
-3.394095 6.316855 0.122666 98
-3.734749 6.003281 -0.286441 101
-2.440053 6.364925 -0.565218 100
-2.744343 6.534666 0.080409 101
-3.079063 6.197899 -0.320314 101
-3.754621 6.037501 -0.178725 101
-2.480028 6.472477 -0.254161 101
-2.833329 6.192213 -0.643701 101
-3.156029 6.355525 -0.001238 101
-3.466069 5.991064 -0.507065 100
-2.490047 6.501921 -0.148273 101
-2.844351 6.219083 -0.540617 101
-3.177706 6.401899 0.108534 101
-3.492535 6.039168 -0.403475 101
-2.893851 6.330144 -0.228463 100
-3.220945 6.004345 -0.723365 100
-3.551156 6.142932 -0.082977 101
-2.621648 6.254369 -0.759480 26
-2.910518 6.369455 -0.122237 100
-3.236094 6.035038 -0.620799 101
-3.594364 6.220105 0.026331 101
-2.656004 6.339341 -0.450497 101
-2.963510 6.488328 0.204229 101
-2.968888 5.988841 -0.981337 101
-3.301782 6.160043 -0.310041 100
-2.668092 6.371219 -0.346284 101
-2.985654 6.539739 0.316395 90
-3.005267 6.064803 -0.731716 101
-3.306376 6.171121 -0.202895 87
-2.679374 6.406048 -0.241270 101
-2.998639 6.575819 0.429378 46
-3.014303 6.089756 -0.629151 101
-3.325508 6.213380 -0.095945 101
-2.697913 6.453442 -0.135526 101
-3.031350 6.126805 -0.527179 101
-3.347402 6.256833 0.012385 89
-2.438553 6.395295 -0.461807 101
-3.096350 6.260844 -0.215841 98
-3.417129 5.928659 -0.713185 2
-2.462470 6.461304 -0.359961 101
-2.798018 6.144133 -0.742959 100
-3.112346 6.295870 -0.109102 101
-3.453016 5.993266 -0.613660 101
-2.847879 6.256429 -0.437300 101
-3.172196 6.419673 0.218778 101
-3.496351 6.070856 -0.297300 100
-2.860848 6.287742 -0.333022 101
-3.215255 6.509588 0.333500 30
-3.165863 5.927149 -0.902563 100
-3.513149 6.102411 -0.190535 100
-2.608482 6.254387 -0.653701 101
-2.912776 6.404749 -0.014736 85
-3.233136 6.055565 -0.516154 101
-2.623251 6.292798 -0.552130 101
-2.931305 6.448386 0.093963 79
-3.276822 6.139889 -0.415913 100
-2.694712 6.473475 -0.028148 101
-3.030532 6.148697 -0.422871 101
-3.365604 6.313958 0.122392 92
-3.706421 6.002030 -0.285793 101
-2.418933 6.372982 -0.565218 100
-2.724194 6.547424 0.080454 101
-3.062025 6.215244 -0.320684 101
-3.736680 6.053322 -0.178826 100
-2.459968 6.484403 -0.254307 101
-2.807844 6.190694 -0.642572 101
-3.136703 6.369544 -0.001239 101
-3.434265 5.981767 -0.505312 100
-2.822066 6.224850 -0.540301 101
-3.158226 6.415989 0.108594 100
-3.472489 6.050716 -0.403475 101
-2.871193 6.336065 -0.228332 101
-3.199147 6.011482 -0.722942 100
-3.536737 6.165083 -0.083117 101
-2.887730 6.375429 -0.122167 100
-3.219805 6.052770 -0.621522 101
-3.565759 6.218111 0.026272 100
-2.631907 6.340740 -0.449974 101
-2.946925 6.509047 0.204572 100
-2.954250 6.009308 -0.983080 101
-3.283213 6.174486 -0.310218 100
-2.646950 6.380031 -0.346284 101
-2.959008 6.538682 0.315867 96
-2.983385 6.071166 -0.731286 101
-3.287770 6.185582 -0.203011 100
-2.655419 6.411688 -0.241131 101
-2.967398 6.568074 0.428192 32
-2.987719 6.089535 -0.628045 101
-3.300003 6.217909 -0.095837 100
-2.673811 6.459137 -0.135449 101
-3.013429 6.144524 -0.527794 101
-3.329262 6.275562 0.012399 81
-3.685568 5.994673 -0.393430 7
-2.416203 6.403772 -0.461807 101
-3.077985 6.278800 -0.216088 98
-3.392454 5.933649 -0.712355 71
-3.725751 6.062294 -0.069550 2
-2.438498 6.466120 -0.359753 101
-2.778196 6.157484 -0.743396 100
-3.086837 6.299509 -0.108978 101
-3.408357 5.963768 -0.609419 101
-2.821123 6.255404 -0.436538 101
-3.135723 6.401970 0.217801 101
-3.469214 6.072599 -0.296792 100
-2.838924 6.297671 -0.333022 101
-3.180258 6.495629 0.332215 71
-3.141482 5.931136 -0.901498 100
-3.497816 6.125030 -0.190860 94
-2.582134 6.252390 -0.652548 101
-2.885533 6.403910 -0.014711 90
-3.206437 6.056208 -0.515254 101
-2.602868 6.305570 -0.552453 101
-2.903930 6.447602 0.093804 74
-3.253578 6.147720 -0.415675 100
-2.676807 6.493881 -0.028196 101
-3.017942 6.177112 -0.424102 101
-3.330592 6.300847 0.121913 79
-3.675132 5.997816 -0.284983 101
-2.399626 6.388793 -0.565880 100
-2.701478 6.556829 0.080454 101
-3.033444 6.211462 -0.319944 101
-3.709404 6.056011 -0.178524 100
-2.434680 6.485402 -0.254014 101
-2.784750 6.196752 -0.642195 101
-3.109354 6.369588 -0.001237 101
-3.411548 5.990161 -0.505019 100
-2.800502 6.234581 -0.540301 101
-3.134245 6.423288 0.108534 101
-3.443622 6.048819 -0.402551 101
-2.850900 6.349604 -0.228463 100
-3.174624 6.015475 -0.722098 100
-3.509459 6.166849 -0.082977 101
-2.865681 6.385370 -0.122167 100
-3.200728 6.067384 -0.621883 101
-3.556116 6.251256 0.026360 100
-2.606962 6.342407 -0.449450 101
-2.916250 6.500943 0.204000 100
-2.928282 6.008800 -0.981337 101
-3.258145 6.178717 -0.309863 100
-2.624923 6.389125 -0.346284 101
-2.938066 6.552498 0.316043 93
-2.964162 6.084998 -0.731716 101
-3.258952 6.182740 -0.202547 100
-2.634538 6.424617 -0.241270 101
-2.968186 6.103509 -0.628413 101
-3.272690 6.218772 -0.095673 100
-2.654281 6.475832 -0.135604 101
-2.991962 6.155005 -0.527794 101
-3.303612 6.280065 0.012385 91
-3.660460 6.000683 -0.392983 100
-2.400814 6.430861 -0.463153 101
-3.052555 6.282314 -0.215841 95
-3.381534 5.962759 -0.714428 65
-3.742050 6.136732 -0.070253 49
-2.415912 6.474592 -0.359753 101
-2.756685 6.167144 -0.743396 100
-3.064829 6.310246 -0.108978 101
-3.379659 5.961764 -0.608005 101
-2.805784 6.279792 -0.437554 101
-3.120342 6.427264 0.218289 101
-3.455877 6.098580 -0.297470 100
-2.812036 6.296598 -0.332445 101
-3.150586 6.492311 0.331481 59
-3.115230 5.931537 -0.899900 85
-3.464589 6.116328 -0.190211 100
-2.563307 6.268736 -0.653317 101
-2.861531 6.410290 -0.014703 100
-3.192694 6.081491 -0.516453 101
-2.577825 6.307236 -0.551808 101
-2.883036 6.461352 0.093857 89
-3.226533 6.148433 -0.414959 100
-2.649588 6.492074 -0.028148 101
-2.992881 6.180422 -0.423610 101
-3.303008 6.301808 0.121708 91
-3.647944 6.000362 -0.284497 101
-2.681595 6.573626 0.080545 32
-3.016966 6.232802 -0.320499 101
-3.334099 6.363702 0.233304 1
-3.682012 6.058671 -0.178223 97
-2.409244 6.486366 -0.253721 101
-2.767961 6.217349 -0.643324 101
-3.081875 6.369601 -0.001235 101
-3.406315 6.029821 -0.507357 101
-2.778723 6.244318 -0.540301 101
-3.108321 6.426989 0.108412 101
-3.422487 6.060802 -0.402551 101
-2.828718 6.359517 -0.228463 100
-3.153607 6.026519 -0.722098 100
-3.478080 6.161646 -0.082743 101
-2.833626 6.373407 -0.121748 101
-3.173990 6.067930 -0.620799 101
-3.524445 6.246213 0.026287 100
-2.592330 6.369953 -0.450758 101
-2.895163 6.514737 0.204114 100
-2.909011 6.022549 -0.981918 100
-3.232854 6.182970 -0.309509 100
-2.598089 6.387147 -0.345683 101
-2.911932 6.555409 0.315691 98
-2.942904 6.095307 -0.731716 101
-3.241054 6.201165 -0.202779 100
-2.614723 6.437022 -0.241409 101
-2.947930 6.113318 -0.628413 101
-3.253901 6.233136 -0.095728 100
-2.632792 6.484599 -0.135604 101
-2.968072 6.157708 -0.527179 101
-3.282768 6.290986 0.012385 99
-3.607445 5.958127 -0.389411 73
-2.372558 6.420070 -0.461807 101
-3.031705 6.292402 -0.215841 98
-3.363693 5.977407 -0.714843 101
-3.686471 6.090935 -0.069589 91
-2.393044 6.478821 -0.359545 101
-2.736219 6.176251 -0.743396 100
-3.038681 6.309564 -0.108792 101
-3.363777 5.979885 -0.608712 101
-2.781712 6.281762 -0.437046 101
-3.097277 6.433973 0.218167 101
-3.427799 6.096073 -0.296792 101
-2.797609 6.320502 -0.333215 101
-3.134237 6.513525 0.332031 65
-3.108365 5.966445 -0.903628 100
-3.452125 6.141726 -0.190643 97
-2.542505 6.277202 -0.653317 101
-2.841877 6.423402 -0.014711 88
-3.165140 6.077893 -0.515254 101
-2.561383 6.326836 -0.552776 101
-2.855123 6.456245 0.093645 84
-3.202439 6.152016 -0.414482 100
-2.628045 6.500825 -0.028148 101
-2.970642 6.186714 -0.423363 101
-3.283937 6.316275 0.121776 99
-3.628026 6.012426 -0.284497 101
-2.984178 6.217556 -0.319205 101
-3.307447 6.364080 0.232914 45
-3.364149 5.999224 -0.862808 2
-3.666031 6.077695 -0.178424 100
-2.389100 6.498072 -0.253868 101
-2.744113 6.219206 -0.642572 101
-3.064196 6.386999 -0.001236 101
-3.386301 6.041083 -0.507357 100
-2.758000 6.253499 -0.540301 101
-3.086992 6.437261 0.108412 101
-3.408226 6.082569 -0.403244 101
-2.807614 6.368862 -0.228463 100
-3.129940 6.029883 -0.721253 100
-3.455674 6.169657 -0.082696 101
-2.823764 6.408388 -0.122237 100
-3.150182 6.071350 -0.620077 101
-3.488080 6.229945 0.026169 100
-2.575669 6.389621 -0.451543 101
-2.871932 6.520642 0.204000 100
-3.006977 6.278446 -1.022009 55
-3.216013 6.200751 -0.309863 97
-2.576894 6.395728 -0.345683 101
-2.895008 6.576002 0.316219 85
-2.920958 6.101446 -0.731286 101
-3.218632 6.208329 -0.202663 100
-2.586289 6.431267 -0.240853 101
-2.923154 6.116376 -0.627676 101
-3.230301 6.240896 -0.095673 100
-3.588242 5.971086 -0.496906 10
-2.611643 6.497456 -0.135681 101
-2.946570 6.168026 -0.527179 101
-3.258960 6.298848 0.012378 96
-3.590749 5.977524 -0.389857 65
-2.351508 6.432060 -0.462076 101
-3.002835 6.288513 -0.215347 96
-3.338933 5.982162 -0.714014 101
-3.673428 6.117480 -0.069745 99
-2.371783 6.490888 -0.359753 101
-2.714641 6.185766 -0.743396 99
-3.016635 6.320134 -0.108792 101
-3.352587 6.008988 -0.610479 101
-2.759758 6.291437 -0.437046 101
-3.078233 6.451967 0.218411 101
-3.402598 6.101025 -0.296452 101
-2.773910 6.326577 -0.333022 101
-3.104586 6.510007 0.331297 67
-3.089324 5.980789 -0.904160 101
-3.428703 6.150254 -0.190535 100
-2.523520 6.293438 -0.654085 101
-2.816204 6.425966 -0.014694 100
-3.145714 6.092460 -0.515554 101
-2.536289 6.328348 -0.552130 101
-2.835750 6.473512 0.093751 74
-3.188242 6.177363 -0.415436 100
-2.600830 6.498838 -0.028100 101
-2.948982 6.197068 -0.423363 101
-3.265487 6.334834 0.121913 100
-3.602866 6.018222 -0.284174 101
-2.969269 6.242393 -0.319944 101
-3.294314 6.393384 0.233564 61
-3.345065 6.014427 -0.863306 9
-3.638582 6.080192 -0.178122 100
-2.725518 6.236071 -0.643324 101
-3.045257 6.404910 -0.001238 101
-3.363197 6.049412 -0.507065 100
-2.739281 6.270425 -0.540932 101
-3.057568 6.433580 0.108169 100
-3.381089 6.083993 -0.402551 101
-2.783692 6.374992 -0.228332 100
-3.114264 6.051418 -0.722520 100
-3.445699 6.202700 -0.082977 100
-2.796497 6.407244 -0.122027 100
-3.130715 6.085890 -0.620438 101
-3.464292 6.238629 0.026155 100
-2.545866 6.380071 -0.450235 101
-2.850663 6.534331 0.204114 100
-2.978170 6.274643 -1.019685 75
-3.190609 6.204875 -0.309509 100
-2.560380 6.419564 -0.346484 101
-2.901257 6.115240 -0.731716 101
-3.196851 6.219573 -0.202663 97
-2.569738 6.455112 -0.241409 101
-2.900081 6.122943 -0.627307 101
-3.208497 6.252134 -0.095673 101
-3.546945 5.949304 -0.494061 101
-2.585989 6.499101 -0.135526 101
-2.925021 6.178274 -0.527179 101
-3.240605 6.317304 0.012392 91
-3.578040 6.003745 -0.390751 78
-2.334471 6.455241 -0.463153 101
-2.989417 6.317026 -0.215965 100
-3.312251 5.983338 -0.712770 101
-3.650004 6.126829 -0.069706 86
-2.351827 6.506640 -0.360168 101
-2.691447 6.191558 -0.742959 100
-2.997976 6.337856 -0.108916 101
-3.327733 6.013682 -0.609772 101
-2.734599 6.293709 -0.436538 101
-3.055693 6.462673 0.218411 101
-3.383215 6.116363 -0.296622 101
-2.751809 6.336221 -0.333022 101
-3.081843 6.520804 0.331297 65
-3.063007 5.980950 -0.902563 101
-3.403344 6.155187 -0.190319 100
-2.503006 6.305909 -0.654469 101
-2.793756 6.435757 -0.014694 87
-3.113523 6.082100 -0.513754 101
-2.506832 6.318633 -0.550516 101
-2.813136 6.483371 0.093751 81
-3.163022 6.181346 -0.414959 100
-3.833247 6.007265 -0.165447 42
-2.579602 6.511596 -0.028116 101
-2.925629 6.203712 -0.423117 101
-3.243354 6.346194 0.121913 100
-3.581836 6.030762 -0.284174 101
-2.945757 6.249106 -0.319759 101
-3.281070 6.422646 0.234213 74
-3.279960 5.946136 -0.851855 46
-3.621419 6.099733 -0.178323 100
-2.700569 6.238238 -0.642572 101
-3.016061 6.401027 -0.001235 101
-3.340134 6.057622 -0.506773 100
-2.714210 6.272629 -0.540301 101
-3.041908 6.458687 0.108412 100
-3.361759 6.099256 -0.402782 101
-2.759835 6.381001 -0.228201 100
-3.082274 6.040994 -0.719986 100
-3.420167 6.207684 -0.082883 93
-2.772528 6.413296 -0.121957 100
-3.102213 6.082587 -0.618994 101
-3.438635 6.243676 0.026125 101
-2.527979 6.400056 -0.451020 101
-2.832595 6.555253 0.204458 101
-2.962987 6.299325 -1.022009 47
-3.168931 6.215974 -0.309509 100
-2.540890 6.435894 -0.346885 101
-2.879893 6.125330 -0.731716 101
-3.173306 6.227132 -0.202547 100
-2.542794 6.452885 -0.240992 101
-2.878690 6.133029 -0.627307 101
-3.184840 6.259731 -0.095619 100
-3.520063 5.951347 -0.493207 101
-2.564753 6.511809 -0.135604 101
-2.900049 6.181225 -0.526564 101
-3.218534 6.328577 0.012392 97
-3.550963 6.005884 -0.390081 80
-2.307891 6.452077 -0.462345 101
-2.963953 6.320182 -0.215718 98
-3.281771 5.977426 -0.710697 101
-3.626560 6.136089 -0.069667 100
-2.326411 6.507288 -0.359753 101
-2.666673 6.193611 -0.742084 100
-2.975834 6.348283 -0.108916 101
-3.304804 6.021769 -0.609419 101
-2.718925 6.317884 -0.437554 101
-3.028026 6.462439 0.218045 101
-3.359922 6.124631 -0.296452 101
-2.729675 6.345788 -0.333022 101
-3.064147 6.542377 0.331848 65
-3.042111 5.991606 -0.902563 101
-3.376070 6.156511 -0.189994 101
-2.482435 6.318314 -0.654853 73
-2.768114 6.438120 -0.014678 92
-3.094078 6.096488 -0.514054 101
-3.437179 6.270438 0.136052 63
-3.794343 5.990100 -0.273637 0
-2.494962 6.353323 -0.552776 101
-2.785750 6.482127 0.093592 84
-3.139620 6.188788 -0.414720 100
-3.807976 6.013851 -0.165261 49
-2.903956 6.213887 -0.423117 101
-3.213952 6.343206 0.121639 92
-3.558734 6.039785 -0.284012 101
-2.922235 6.255730 -0.319575 101
-3.256825 6.430493 0.234083 76
-3.245850 5.933176 -0.848370 54
-3.598075 6.108891 -0.178223 100
-2.678777 6.247627 -0.642572 101
-2.992007 6.407892 -0.001234 101
-3.317055 6.065744 -0.506481 101
-2.692298 6.282065 -0.540301 101
-3.017653 6.465642 0.108351 101
-3.338533 6.107449 -0.402551 101
-2.742267 6.401620 -0.228594 100
-3.062964 6.055265 -0.720409 100
-3.396559 6.216074 -0.082836 100
-2.748550 6.419258 -0.121888 100
-3.084557 6.100488 -0.619716 101
-3.416819 6.255641 0.026125 100
-2.502717 6.401407 -0.450497 101
-2.798683 6.539370 0.203656 100
-2.935964 6.298869 -1.020266 41
-3.143609 6.219865 -0.309154 97
-2.516954 6.441003 -0.346685 101
-2.861853 6.142555 -0.732576 101
-3.153352 6.241739 -0.202663 100
-2.521719 6.465441 -0.241131 101
-2.860636 6.150257 -0.628045 101
-3.164784 6.274374 -0.095673 101
-3.503318 5.970473 -0.493776 101
-2.539110 6.513266 -0.135449 101
-2.875100 6.184074 -0.525948 101
-3.191029 6.329054 0.012371 88
-3.532005 6.021683 -0.390304 87
-2.282696 6.452568 -0.461807 101
-2.943561 6.334114 -0.215841 100
-3.258986 5.985350 -0.710282 101
-3.605122 6.148709 -0.069667 100
-2.648154 6.210197 -0.742959 100
-2.951970 6.355005 -0.108854 101
-3.281858 6.029769 -0.609065 101
-2.690587 6.312650 -0.436538 101
-3.008810 6.480225 0.218289 101
-3.340426 6.139836 -0.296622 100
-2.705929 6.351607 -0.332830 101
-3.039597 6.549415 0.331664 59
-3.014037 5.988029 -0.900433 101
-3.362189 6.182315 -0.190427 100
-2.750309 6.458791 -0.014703 98
-3.074555 6.110822 -0.514354 101
-3.413344 6.278893 0.135976 100
-3.767013 5.993166 -0.273175 37
-2.465526 6.343421 -0.551162 101
-2.769349 6.506542 0.093804 89
-3.123358 6.210422 -0.415436 89
-3.784812 6.023734 -0.165168 49
-2.888922 6.238494 -0.424102 101
-3.195343 6.361553 0.121776 80
-3.533561 6.045290 -0.283688 101
-2.900339 6.265912 -0.319575 101
-3.214584 6.402542 0.232655 62
-3.209939 5.916583 -0.844387 57
-3.562568 6.097270 -0.177519 100
-2.656906 6.256959 -0.642572 101
-2.967894 6.414689 -0.001234 101
-3.293914 6.073803 -0.506188 100
-2.667186 6.284105 -0.539671 101
-2.993334 6.472530 0.108291 101
-3.309531 6.105050 -0.401627 101
-2.719847 6.411178 -0.228594 100
-3.055662 6.610221 0.446681 48
-3.041754 6.065948 -0.720409 100
-3.380501 6.238473 -0.082977 100
-2.727625 6.432521 -0.121957 100
-3.054258 6.093441 -0.617910 101
-3.398711 6.274598 0.026155 101
-2.481729 6.413852 -0.450758 101
-2.788253 6.578579 0.204572 46
-2.938784 6.363003 -1.028981 46
-3.125393 6.237979 -0.309509 97
-2.485737 6.427422 -0.345483 101
-2.833657 6.138097 -0.730856 101
-3.126104 6.242019 -0.202315 100
-3.477985 5.966325 -0.599342 100
-2.496256 6.466745 -0.240853 101
-2.837483 6.156588 -0.627676 101
-3.142863 6.285383 -0.095673 101
-3.482456 5.982666 -0.493776 101
-2.514920 6.518359 -0.135371 101
-2.860171 6.208562 -0.527179 101
-3.167129 6.336576 0.012364 94
-3.516990 6.044331 -0.390974 82
-2.265430 6.475565 -0.462884 101
-2.916416 6.333456 -0.215471 98
-3.239964 6.000190 -0.710697 101
-3.581626 6.157798 -0.069628 100
-2.629554 6.226729 -0.743834 94
-2.931441 6.368904 -0.108916 101
-3.262682 6.044694 -0.609419 101
-3.614884 6.217384 0.040167 0
-2.668536 6.322003 -0.436538 101
-2.987843 6.494320 0.218411 101
-3.309485 6.133873 -0.295774 101
-2.683742 6.361014 -0.332830 101
-3.008369 6.541833 0.330747 70
-2.989576 5.991419 -0.899368 101
-3.332996 6.179936 -0.189994 100
-2.724638 6.460981 -0.014686 96
-3.051426 6.117948 -0.514054 101
-3.391405 6.290770 0.135976 100
-3.735494 5.989322 -0.272403 100
-2.441936 6.348268 -0.550839 101
-2.740406 6.501427 0.093592 92
-3.096316 6.210567 -0.414720 100
-3.761647 6.033515 -0.165075 51
-2.855474 6.223140 -0.422378 101
-3.167770 6.361927 0.121571 78
-3.504418 6.043757 -0.283040 101
-2.873452 6.265102 -0.319020 101
-3.190434 6.410145 0.232525 63
-3.187387 5.924257 -0.843889 57
-3.541263 6.109668 -0.177519 100
-2.633505 6.262524 -0.642195 101
-2.942151 6.417737 -0.001232 101
-3.267024 6.074724 -0.505312 100
-2.648324 6.300729 -0.540301 101
-2.967390 6.475667 0.108169 101
-3.293873 6.127117 -0.402320 101
-2.694354 6.413261 -0.228332 100
-3.032569 6.620847 0.446681 100
-3.022332 6.080090 -0.720831 100
-3.347345 6.229095 -0.082696 100
-2.706703 6.445691 -0.122027 100
-3.040060 6.118336 -0.619355 101
-3.376788 6.286423 0.026155 101
-2.453616 6.407566 -0.449712 101
-3.094712 6.230956 -0.308623 100
-3.437186 5.941619 -0.702081 2
-2.474710 6.465908 -0.347085 101
-2.817177 6.158800 -0.732146 101
-3.109630 6.263637 -0.202663 100
-3.461128 5.985328 -0.600034 101
-2.473668 6.475419 -0.240853 101
-2.814321 6.162832 -0.627307 101
-3.117351 6.289148 -0.095564 101
-3.463547 5.998240 -0.494061 101
-2.836826 6.214880 -0.526871 101
-3.146766 6.351177 0.012371 100
-3.481894 6.032359 -0.389411 85
-2.250641 6.506063 -0.464499 101
-2.899269 6.354510 -0.215841 95
-3.220878 6.014970 -0.711111 101
-3.560110 6.170263 -0.069628 100
-2.603201 6.224865 -0.742521 75
-2.902553 6.364542 -0.108668 101
-3.230281 6.034970 -0.607298 101
-3.579170 6.205710 0.040011 43
-2.647991 6.334963 -0.436792 101
-2.956863 6.486520 0.217801 101
-3.293710 6.155959 -0.296283 101
-2.656900 6.359283 -0.332252 101
-2.988829 6.559567 0.331114 66
-2.975675 6.016032 -0.901498 101
-3.307632 6.184481 -0.189778 101
-2.703610 6.474144 -0.014694 94
-3.033587 6.135713 -0.514654 101
-3.371311 6.306097 0.136052 94
-3.704047 5.985331 -0.271632 100
-2.421180 6.360479 -0.551162 101
-2.723858 6.525717 0.093804 76
-3.072849 6.217757 -0.414482 100
-3.732148 6.033006 -0.164704 51
-2.838690 6.243973 -0.423117 101
-3.145544 6.372946 0.121571 69
-3.489279 6.066347 -0.283526 101
-2.856524 6.286007 -0.319575 101
-3.178652 6.442755 0.233304 80
-3.179766 5.959858 -0.847374 70
-3.517921 6.118526 -0.177418 100
-2.611629 6.271679 -0.642195 101
-2.923039 6.435252 -0.001234 101
-3.242045 6.079051 -0.504727 100
-2.626314 6.309936 -0.540301 101
-2.944768 6.485986 0.108169 100
-3.272465 6.138577 -0.402320 101
-2.670416 6.418936 -0.228201 100
-3.001190 6.613214 0.445457 56
-2.995816 6.079899 -0.719564 100
-3.323700 6.237212 -0.082649 100
-2.682651 6.451407 -0.121957 100
-3.013404 6.118189 -0.618271 101
-3.349182 6.287581 0.026111 100
-3.677678 5.962877 -0.378194 6
-2.441135 6.442219 -0.451543 101
-3.072942 6.241720 -0.308623 100
-3.406522 5.936324 -0.700046 36
-2.442220 6.448355 -0.345683 101
-2.798945 6.175841 -0.733005 101
-3.073623 6.245754 -0.201736 100
-3.422368 5.966263 -0.596922 101
-2.459204 6.502300 -0.241548 101
-2.795466 6.175780 -0.627676 101
-3.094668 6.295885 -0.095510 101
-3.439625 6.002795 -0.493491 101
-2.816173 6.224266 -0.526871 101
-3.123895 6.358002 0.012364 100
-3.471768 6.061215 -0.390527 82
-2.876523 6.360451 -0.215718 100
-3.189730 6.494709 0.346291 53
-3.197170 6.018597 -0.710282 101
-3.537630 6.178570 -0.069589 101
-2.585594 6.240808 -0.743396 15
-2.884733 6.381418 -0.108792 101
-3.217731 6.059721 -0.608712 101
-3.560565 6.221013 0.040033 100
-2.623939 6.336323 -0.436284 101
-2.940301 6.507209 0.218167 101
-3.265807 6.152715 -0.295604 101
-2.638896 6.375425 -0.332637 101
-2.970393 6.576706 0.331481 63
-2.948765 6.011611 -0.899368 101
-3.289021 6.198926 -0.189886 100
-2.677599 6.471960 -0.014669 100
-3.011526 6.142129 -0.514354 101
-3.356062 6.327809 0.136280 100
-3.684236 5.997546 -0.271632 84
-2.398747 6.364713 -0.550839 101
-2.696169 6.519897 0.093592 79
-3.048775 6.220705 -0.414004 100
-3.705918 6.035080 -0.164425 53
-2.818098 6.253294 -0.423117 101
-3.124525 6.383277 0.121571 83
-3.463324 6.067400 -0.283040 101
-2.835811 6.295379 -0.319575 101
-3.148636 6.435230 0.232655 77
-3.163838 5.977312 -0.848370 90
-3.499738 6.133549 -0.177519 100
-2.594020 6.287599 -0.642948 101
-2.893641 6.426597 -0.001230 101
-3.223894 6.093210 -0.505019 100
-2.605559 6.318534 -0.540301 101
-2.931639 6.513867 0.108473 101
-3.246669 6.138711 -0.401627 101
-2.647796 6.423975 -0.228069 100
-2.977578 6.093279 -0.719986 100
-3.299459 6.241022 -0.082556 100
-2.666037 6.471269 -0.122167 100
-2.996809 6.135203 -0.618994 101
-3.330401 6.302073 0.026125 101
-3.672691 5.998758 -0.379704 100
-2.417196 6.442714 -0.451020 101
-3.052462 6.251762 -0.308623 100
-3.390979 5.954377 -0.700860 63
-2.429499 6.478765 -0.346885 101
-2.778699 6.184977 -0.733005 101
-3.061915 6.273755 -0.202315 93
-3.404777 5.980906 -0.597267 98
-2.436491 6.510845 -0.241548 101
-2.772262 6.181866 -0.627307 101
-3.072672 6.306649 -0.095510 101
-3.418650 6.014764 -0.493491 101
-2.792797 6.230419 -0.526564 101
-3.098180 6.361675 0.012350 86
-3.440725 6.055935 -0.389411 98
-2.852668 6.366805 -0.215594 98
-3.156547 6.484249 0.345143 101
-3.174288 6.026200 -0.709867 101
-3.510116 6.180447 -0.069471 100
-2.860806 6.387798 -0.108730 101
-3.189134 6.056814 -0.607298 101
-3.540803 6.236882 0.040056 98
-2.604834 6.352830 -0.436792 101
-2.915935 6.513784 0.218045 101
-3.253617 6.181760 -0.296452 101
-2.618141 6.388295 -0.332830 101
-2.942522 6.576092 0.330930 60
-2.929496 6.025432 -0.899900 101
-3.267363 6.210369 -0.189886 100
-2.658024 6.488670 -0.014686 98
-2.990067 6.152604 -0.514354 101
-3.326508 6.325327 0.135976 100
-3.663278 6.010370 -0.271632 87
-2.376515 6.373047 -0.550839 101
-3.028787 6.234900 -0.414243 100
-3.392020 5.984029 -0.826306 0
-3.691071 6.058225 -0.164704 52
-2.794625 6.259447 -0.422871 101
-3.103970 6.397743 0.121639 78
-3.442124 6.079452 -0.283040 101
-2.812191 6.301590 -0.319390 101
-3.122664 6.438988 0.232395 85
-3.133732 5.970747 -0.845880 92
-3.472398 6.135287 -0.177217 100
-2.569044 6.289243 -0.642195 101
-2.874449 6.443964 -0.001232 101
-3.191485 6.083230 -0.503266 101
-2.581980 6.323899 -0.539986 101
-2.899112 6.502143 0.108109 101
-3.219657 6.139397 -0.400935 101
-2.623846 6.429478 -0.227938 100
-2.958025 6.107215 -0.720409 100
-3.273939 6.245417 -0.082462 100
-2.641922 6.476832 -0.122097 100
-2.977110 6.149212 -0.619355 101
-3.310239 6.317204 0.026140 101
-3.639287 5.991060 -0.378410 100
-2.396081 6.454854 -0.451282 101
-3.030621 6.262379 -0.308623 100
-3.364302 5.955783 -0.699639 81
-3.691230 6.078836 -0.055857 11
-2.398531 6.464733 -0.345683 101
-2.758709 6.198272 -0.733435 101
-3.033032 6.270008 -0.201852 101
-3.381919 5.989284 -0.596922 100
-2.408198 6.504314 -0.240992 101
-2.749049 6.187865 -0.626938 101
-3.047161 6.310133 -0.095401 100
-3.395675 6.023186 -0.493207 101
-2.767795 6.232840 -0.525948 101
-3.074215 6.368848 0.012343 98
-3.417604 6.064429 -0.389188 100
-2.825560 6.365761 -0.215224 100
-3.137366 6.502425 0.345526 101
-3.149550 6.030191 -0.709038 101
-3.482631 6.182207 -0.069354 101
-2.840113 6.401402 -0.108792 101
-3.171660 6.074973 -0.608005 101
-3.511160 6.235262 0.039966 76
-2.579639 6.354486 -0.436284 101
-2.889938 6.516613 0.217801 101
-3.222774 6.175365 -0.295604 100
-2.598830 6.404799 -0.333215 101
-2.914692 6.575365 0.330379 54
-2.908446 6.035621 -0.899900 101
-3.245665 6.221736 -0.189886 101
-2.639868 6.509028 -0.014711 89
-2.961649 6.148630 -0.513154 101
-3.300710 6.329808 0.135824 101
-3.642276 6.023120 -0.271632 87
-2.351495 6.373823 -0.550193 101
-3.003541 6.238240 -0.413766 100
-3.376950 6.006218 -0.827737 29
-3.655420 6.047116 -0.164054 52
-2.769529 6.261861 -0.422378 101
-3.076419 6.397726 0.121434 73
-3.415011 6.080976 -0.282554 101
-2.786946 6.304059 -0.319020 101
-3.101901 6.453452 0.232525 90
-3.109207 5.974608 -0.844885 92
-3.443130 6.133423 -0.176815 100
-2.550061 6.305555 -0.642948 101
-2.853555 6.457617 -0.001232 101
-3.179436 6.112029 -0.504727 101
-2.561384 6.336570 -0.540301 101
-2.878013 6.515882 0.108169 101
-3.207418 6.168313 -0.402089 101
-2.602885 6.442304 -0.228069 100
-2.936688 6.117504 -0.720409 100
-3.257653 6.267454 -0.082602 101
-3.595314 5.963270 -0.483254 1
-2.620795 6.489724 -0.122167 100
-2.957351 6.163159 -0.619716 101
-3.284479 6.321621 0.026111 100
-3.601858 5.976359 -0.376685 94
-2.366655 6.444445 -0.449974 101
-3.007014 6.269316 -0.308445 99
-3.343492 5.967490 -0.699639 91
-3.707143 6.153354 -0.056422 77
-2.377327 6.476816 -0.345884 101
-2.737056 6.207864 -0.733435 101
-3.018042 6.294978 -0.202315 100
-3.355150 5.990622 -0.595884 100
-2.725874 6.193758 -0.626569 101
-3.026889 6.324316 -0.095455 101
-3.370779 6.028012 -0.492638 101
-2.749262 6.249752 -0.526564 101
-3.053721 6.383135 0.012350 93
-3.394494 6.072820 -0.388964 90
-2.809771 6.390220 -0.215718 98
-3.112937 6.509727 0.345335 100
-3.126662 6.037610 -0.708623 101
-3.472747 6.215271 -0.069589 100
-2.820962 6.418602 -0.108916 101
-3.150429 6.086011 -0.608005 101
-3.487416 6.243992 0.039944 78
-2.558906 6.367167 -0.436538 101
-2.871973 6.537653 0.218167 101
-3.206684 6.197237 -0.296113 100
-2.571947 6.402727 -0.332637 101
-2.894153 6.060066 -0.902030 101
-3.220212 6.225946 -0.189670 101
-2.612599 6.507092 -0.014686 87
-2.945265 6.169757 -0.514054 101
-3.276698 6.337770 0.135748 101
-3.623228 6.039259 -0.271786 99
-2.985109 6.255930 -0.414243 100
-3.307324 6.399646 0.247784 46
-3.321074 5.955576 -0.819149 43
-3.638329 6.066743 -0.164240 53
-2.752331 6.282518 -0.423117 101
-3.052215 6.404879 0.121366 82
-3.395582 6.096421 -0.282716 101
-2.761570 6.306493 -0.318650 101
-3.075765 6.457094 0.232265 81
-3.091831 5.992552 -0.845880 92
-3.421556 6.145485 -0.176815 101
-2.523429 6.303394 -0.641819 101
-2.827619 6.460284 -0.001231 101
-3.148778 6.105445 -0.503266 101
-2.539065 6.345546 -0.540301 101
-2.855061 6.525971 0.108169 101
-3.176538 6.161817 -0.400935 101
-2.581660 6.455145 -0.228201 100
-2.909995 6.117034 -0.719142 100
-3.226394 6.261113 -0.082369 100
-3.572237 5.972473 -0.482977 67
-2.594931 6.491495 -0.122027 100
-2.930473 6.162753 -0.618632 101
-3.256678 6.322493 0.026067 100
-3.574618 5.978735 -0.376038 88
-2.347992 6.464009 -0.450758 101
-2.979730 6.269059 -0.307913 100
-3.320484 5.975771 -0.699232 90
-3.658733 6.121761 -0.056014 61
-2.354443 6.485170 -0.345884 101
-2.707162 6.199267 -0.731286 101
-2.988932 6.291150 -0.201852 100
-3.330107 5.995464 -0.595192 100
-2.705829 6.206886 -0.626938 101
-3.001366 6.327616 -0.095346 101
-3.347782 6.036252 -0.492353 101
-2.729022 6.262966 -0.526871 101
-3.031421 6.393756 0.012350 96
-3.373275 6.084632 -0.388964 81
-2.784255 6.392658 -0.215471 100
-3.090195 6.520553 0.345335 100
-3.105568 6.048487 -0.708623 101
-3.441336 6.209862 -0.069393 99
-2.792154 6.413742 -0.108668 101
-3.127347 6.093426 -0.607651 101
-3.465600 6.256127 0.039944 88
-2.536665 6.376060 -0.436538 101
-2.845944 6.540307 0.217923 101
-3.181384 6.201282 -0.295774 101
-2.551058 6.415378 -0.332830 101
-2.867894 6.059381 -0.900433 101
-3.198459 6.237149 -0.189670 100
-2.591347 6.519890 -0.014694 32
-2.923710 6.180000 -0.514054 101
-3.252731 6.345610 0.135672 101
-3.600080 6.048436 -0.271632 100
-2.959840 6.259093 -0.413766 100
-3.286788 6.414710 0.247921 66
-3.296420 5.960182 -0.818195 80
-3.610995 6.069096 -0.163961 50
-2.733562 6.299412 -0.423610 101
-3.033255 6.422727 0.121503 78
-3.376214 6.111735 -0.282878 101
-2.744309 6.327092 -0.319205 101
-3.054914 6.471406 0.232395 78
-3.072702 6.006842 -0.846378 92
-3.400083 6.157391 -0.176815 101
-2.504345 6.319568 -0.642572 101
-2.809824 6.481125 -0.001233 101
-3.136528 6.134159 -0.504727 101
-2.515431 6.350663 -0.539986 101
-2.833854 6.539567 0.108230 101
-3.158645 6.179979 -0.401396 101
-2.554696 6.452966 -0.227807 100
-2.881840 6.112763 -0.717453 100
-3.199060 6.261652 -0.082228 100
-3.551368 5.984906 -0.482977 82
-2.570784 6.496795 -0.121957 100
-2.905547 6.165738 -0.617910 101
-3.236408 6.337384 0.026081 100
-3.572066 6.022095 -0.377979 88
-2.324064 6.468410 -0.450497 101
-2.962937 6.290267 -0.308445 100
-3.295764 5.980355 -0.698418 84
-3.623062 6.110411 -0.055794 58
-2.333142 6.497108 -0.346084 101
-2.691821 6.223279 -0.733005 101
-2.973767 6.316014 -0.202315 100
-3.318773 6.024504 -0.596922 101
-2.687304 6.223607 -0.627676 101
-2.982663 6.345294 -0.095455 101
-3.330537 6.054893 -0.492922 101
-2.703983 6.265131 -0.526256 101
-3.007383 6.400678 0.012343 100
-3.353940 6.099869 -0.389188 92
-2.758756 6.394996 -0.215224 98
-3.069113 6.534917 0.345526 101
-3.079021 6.048654 -0.707380 101
-3.421565 6.225342 -0.069432 100
-2.769749 6.423449 -0.108668 101
-3.102444 6.097203 -0.606944 101
-3.437962 6.257669 0.039877 77
-2.511468 6.377447 -0.436030 101
-2.819932 6.542858 0.217679 101
-3.156094 6.205225 -0.295435 100
-2.524258 6.413090 -0.332252 101
-2.841675 6.058588 -0.898835 101
-3.180292 6.255404 -0.189886 100
-2.898734 6.182945 -0.513454 101
-3.230560 6.356925 0.135672 101
-3.574881 6.054082 -0.271324 94
-2.937974 6.269386 -0.413766 100
-3.266187 6.429708 0.248059 68
-3.269866 5.961206 -0.816764 85
-3.604017 6.105770 -0.164611 49
-2.709980 6.305248 -0.423363 101
-3.010817 6.433276 0.121503 83
-3.356780 6.126988 -0.283040 101
-2.726938 6.347647 -0.319759 101
-3.028917 6.474788 0.232135 70
-3.048126 6.010451 -0.845383 92
-3.376648 6.165715 -0.176715 101
-2.479362 6.320857 -0.641819 101
-2.785605 6.487218 -0.001232 101
-3.104274 6.123721 -0.502973 101
-2.493248 6.359405 -0.539986 101
-2.806277 6.538393 0.108048 100
-3.131639 6.180281 -0.400704 101
-2.536532 6.473011 -0.228201 98
-2.863852 6.129993 -0.718297 100
-3.188027 6.294189 -0.082509 100
-3.526406 5.990388 -0.482423 85
-2.549549 6.509453 -0.122027 100
-2.878950 6.165014 -0.616827 101
-3.216073 6.352211 0.026096 100
-3.538869 6.013872 -0.376685 84
-2.305480 6.487766 -0.451282 101
-2.940962 6.300572 -0.308445 100
-3.274868 5.991823 -0.698418 89
-3.603739 6.126468 -0.055826 57
-2.668516 6.228982 -0.732576 101
-2.948320 6.319109 -0.202084 100
-3.288170 6.018566 -0.595192 101
-2.663997 6.229288 -0.627307 101
-2.957119 6.348415 -0.095346 101
-3.303649 6.055975 -0.492068 101
-2.682097 6.274531 -0.526256 101
-2.988399 6.418389 0.012357 100
-3.330714 6.108033 -0.388964 84
-2.731704 6.393557 -0.214853 100
-3.041226 6.534723 0.344952 101
-3.054304 6.052261 -0.706550 101
-3.390243 6.219688 -0.069237 100
-2.747310 6.433078 -0.108668 101
-3.081141 6.107996 -0.606944 101
-3.421839 6.280169 0.039944 88
-2.490641 6.389894 -0.436284 101
-2.797076 6.552661 0.217679 101
-3.134415 6.216204 -0.295435 101
-2.506208 6.433031 -0.332830 101
-2.825522 6.079255 -0.900433 101
-3.153039 6.255756 -0.189562 100
-3.482186 5.942105 -0.584392 101
-2.873773 6.185791 -0.512855 101
-3.211950 6.375306 0.135824 101
-3.551706 6.063075 -0.271169 86
-2.911026 6.268739 -0.413050 100
-3.240128 6.433929 0.247784 57
-3.247139 5.969095 -0.816287 94
-3.568537 6.094157 -0.163961 51
-2.681700 6.299975 -0.422378 101
-2.990025 6.447374 0.121571 81
-3.331556 6.131645 -0.282716 101
-2.709457 6.368157 -0.320314 101
-3.013023 6.499830 0.232655 73
-3.030692 6.028146 -0.846378 92
-3.355105 6.177464 -0.176715 100
-2.463048 6.344322 -0.643324 47
-2.758247 6.485859 -0.001230 101
-3.082879 6.134520 -0.502973 101
-3.434529 6.326237 0.150785 66
-2.469592 6.364352 -0.539671 101
-2.786566 6.555511 0.108169 100
-3.106462 6.184038 -0.400242 101
-2.516812 6.489280 -0.228463 100
-2.839095 6.132733 -0.717453 100
-3.160652 6.294556 -0.082369 101
-3.485351 5.968203 -0.479654 83
-2.528257 6.522042 -0.122097 100
-2.862431 6.185872 -0.617910 101
-3.186703 6.349099 0.026037 101
-3.507787 6.008941 -0.375607 81
-2.277526 6.480711 -0.450235 101
-2.915596 6.303545 -0.308091 100
-3.252037 5.999720 -0.698011 91
-3.592411 6.156284 -0.055983 59
-2.645203 6.234598 -0.732146 100
-2.919533 6.314846 -0.201620 100
-3.263345 6.023000 -0.594501 100
-2.641771 6.234420 -0.626938 101
-2.934373 6.354555 -0.095292 101
-3.283548 6.066897 -0.492068 101
-2.659720 6.279719 -0.525948 101
-2.962069 6.417368 0.012336 100
-3.302840 6.104994 -0.388071 98
-2.713604 6.409944 -0.215100 98
-3.022887 6.552028 0.345335 100
-3.039559 6.073030 -0.707794 101
-3.377209 6.244969 -0.069393 92
-2.725962 6.442153 -0.108668 101
-3.042612 6.597699 0.459651 12
-3.057304 6.111053 -0.606237 101
-3.395288 6.280926 0.039877 79
-2.473750 6.409291 -0.437046 101
-3.113784 6.226563 -0.295435 100
-2.479110 6.426396 -0.332059 101
-2.807006 6.092192 -0.900965 101
-3.128700 6.259024 -0.189345 100
-3.472481 5.970847 -0.586083 101
-2.851576 6.191664 -0.512555 101
-3.181853 6.368035 0.135443 101
-3.523545 6.060997 -0.270552 98
-2.891892 6.281985 -0.413289 100
-3.215202 6.437485 0.247509 64
-3.225441 5.976336 -0.815810 100
-3.538263 6.088670 -0.163497 51
-2.666999 6.323548 -0.423363 101
-2.965287 6.449986 0.121434 83
-3.305515 6.132104 -0.282231 101
-2.680564 6.358697 -0.319390 101
-2.983106 6.491622 0.232006 72
-3.005372 6.027508 -0.844885 92
-3.334602 6.188556 -0.176715 100
-2.742937 6.509715 -0.001233 101
-3.064299 6.148280 -0.503266 101
-3.407842 6.327029 0.150534 84
-2.449903 6.376229 -0.539986 101
-2.763259 6.561029 0.108109 101
-3.075253 6.172860 -0.398856 101
-2.492413 6.490126 -0.228201 100
-2.817083 6.138499 -0.717031 100
-3.134413 6.294261 -0.082228 101
-3.463540 5.976275 -0.479377 92
-2.843564 6.198951 -0.618271 101
-3.172761 6.373955 0.026096 100
-3.503859 6.048190 -0.377332 91
-2.252090 6.476918 -0.449450 100
-2.889680 6.302282 -0.307559 100
-3.234008 6.013976 -0.698418 81
-3.567967 6.161240 -0.055920 65
-2.624514 6.243335 -0.732146 100
-2.900242 6.328127 -0.201736 100
-3.249014 6.044319 -0.595538 100
-2.618452 6.239931 -0.626569 101
-2.913838 6.368396 -0.095346 100
-3.266124 6.085352 -0.492638 101
-2.637784 6.288965 -0.525948 101
-2.942978 6.434944 0.012350 100
-3.283397 6.120006 -0.388294 87
-2.697396 6.434126 -0.215594 98
-2.999998 6.562540 0.345335 100
-3.018342 6.083603 -0.707794 101
-3.351609 6.249670 -0.069315 100
-2.701912 6.447941 -0.108605 101
-3.016245 6.601017 0.459146 59
-3.037724 6.125257 -0.606591 101
-3.369564 6.285688 0.039832 79
-2.448513 6.410429 -0.436538 101
-3.088480 6.230234 -0.295096 100
-3.423844 5.932484 -0.687304 55
-2.460937 6.446208 -0.332637 101
-2.879568 6.307516 -0.931317 29
-3.105058 6.266324 -0.189237 101
-3.449626 5.979479 -0.585745 101
-2.834913 6.212466 -0.513454 101
-3.157830 6.375519 0.135367 101
-3.506361 6.080184 -0.270861 100
-2.871603 6.295674 -0.413527 101
-3.192711 6.448669 0.247509 60
-3.204560 5.987558 -0.815810 92
-3.532965 6.128700 -0.164240 54
-2.643371 6.329134 -0.423117 101
-2.941097 6.456658 0.121366 82
-3.282205 6.140080 -0.282069 101
-2.652194 6.353266 -0.318650 101
-2.962084 6.505634 0.232135 78
-2.986073 6.041520 -0.845383 92
-3.311095 6.196631 -0.176614 101
-2.715576 6.508175 -0.001231 101
-3.042819 6.158938 -0.503266 101
-3.376316 6.321249 0.150115 86
-2.426214 6.381014 -0.539671 101
-2.734182 6.555870 0.107866 100
-3.062528 6.201459 -0.400011 101
-2.471163 6.502524 -0.228332 100
-2.800578 6.159158 -0.718297 100
-3.112422 6.305164 -0.082228 100
-3.448624 5.998707 -0.480208 100
-2.818611 6.201586 -0.617549 101
-3.143413 6.370643 0.026037 100
-3.470784 6.039605 -0.376038 76
-2.872622 6.323245 -0.308091 100
-3.214868 6.028739 -0.698825 92
-3.552416 6.184062 -0.056014 68
-2.604233 6.256130 -0.732576 97
-2.883095 6.349134 -0.202084 100
-3.220397 6.041556 -0.594155 100
-3.553377 6.188145 0.053555 7
-2.600147 6.260521 -0.627676 101
-2.890477 6.379034 -0.095346 101
-3.240051 6.090238 -0.492068 101
-2.619303 6.309640 -0.526871 101
-2.919373 6.445687 0.012350 99
-3.259069 6.128472 -0.388071 95
-2.669199 6.432890 -0.215224 96
-2.969334 6.558932 0.344570 101
-2.989004 6.080343 -0.706136 101
-3.311783 6.230126 -0.068963 100
-2.678261 6.457800 -0.108605 101
-3.015254 6.136350 -0.606591 101
-3.346503 6.297996 0.039832 91
-2.423591 6.415625 -0.436284 101
-3.062101 6.234337 -0.294756 100
-3.413938 5.965719 -0.689700 90
-2.435883 6.451447 -0.332445 101
-2.846632 6.296353 -0.928122 26
-3.082070 6.277663 -0.189237 100
-3.421750 5.981704 -0.584730 101
-2.803911 6.204641 -0.511955 101
-3.136203 6.390640 0.135443 101
-3.476116 6.079116 -0.270244 97
-2.850153 6.309796 -0.413766 100
-3.163772 6.449561 0.247096 65
-3.184454 6.002771 -0.816287 95
-3.496587 6.117305 -0.163590 52
-2.614055 6.324022 -0.422132 101
-2.912478 6.456458 0.121160 86
-3.255936 6.145006 -0.281745 101
-2.638045 6.385102 -0.319759 101
-2.938220 6.516447 0.232135 81
-2.963909 6.052424 -0.845383 92
-3.284618 6.201658 -0.176413 101
-2.690178 6.514388 -0.001230 101
-3.018471 6.166466 -0.502973 101
-3.358738 6.344184 0.150367 88
-2.405617 6.397329 -0.540301 101
-2.716239 6.580635 0.108109 67
-3.034513 6.201881 -0.399318 101
-2.444500 6.504053 -0.228069 101
-2.779618 6.173008 -0.718720 100
-3.085778 6.309343 -0.082135 100
-3.428591 6.014773 -0.480485 100
-2.792592 6.204609 -0.616827 101
-3.113015 6.367747 0.025979 101
-3.452580 6.059226 -0.376469 82
-2.844508 6.322798 -0.307559 100
-3.190890 6.036963 -0.698418 87
-3.525767 6.190090 -0.055951 64
-2.587345 6.280341 -0.734295 30
-2.853245 6.345072 -0.201620 100
-3.194509 6.046272 -0.593463 101
-3.556401 6.246315 0.053945 100
-2.571794 6.250692 -0.625832 101
-2.864392 6.377638 -0.095183 101
-3.216112 6.093892 -0.491499 101
-2.595331 6.310915 -0.526256 101
-2.899620 6.458982 0.012357 100
-3.240592 6.142778 -0.388294 84
-2.647852 6.441707 -0.215224 100
-2.947567 6.568743 0.344570 101
-2.968824 6.090222 -0.706136 101
-3.304165 6.265840 -0.069237 101
-2.656832 6.466646 -0.108605 101
-2.994888 6.146315 -0.606591 101
-3.321869 6.301982 0.039788 90
-2.405099 6.431105 -0.436792 101
-3.039660 6.240864 -0.294587 101
-3.386275 5.963164 -0.688102 91
-2.414476 6.459489 -0.332445 101
-2.824116 6.302140 -0.927589 16
-3.061236 6.287849 -0.189237 100
-3.403862 5.996484 -0.585068 101
-2.791473 6.232106 -0.513454 101
-3.114994 6.401005 0.135443 101
-3.461855 6.101039 -0.270707 95
-2.825950 6.311924 -0.413289 100
-3.138870 6.452827 0.246821 63
-3.168230 6.020327 -0.817241 97
-3.478255 6.132345 -0.163683 52
-2.603660 6.358519 -0.423856 101
-2.897582 6.480685 0.121434 84
-3.242979 6.169920 -0.282393 101
-2.609290 6.375325 -0.318835 101
-2.914963 6.522505 0.232006 78
-2.942089 6.058649 -0.844885 92
-3.267754 6.219596 -0.176614 101
-2.667046 6.519570 -0.001229 101
-3.001489 6.183620 -0.503558 101
-3.330244 6.341125 0.150031 88
-2.378825 6.390323 -0.539040 101
-3.017416 6.219096 -0.399780 101
-3.388976 5.989019 -0.802290 9
-2.420131 6.504630 -0.227807 53
-2.754269 6.171295 -0.717453 100
-3.061347 6.312343 -0.082041 100
-3.410591 6.029583 -0.480762 100
-2.775248 6.221112 -0.617549 101
-3.098861 6.392433 0.026037 100
-3.434433 6.074119 -0.376685 85
-2.823525 6.332196 -0.307559 100
-3.146238 6.492946 0.359187 55
-3.169005 6.043988 -0.698011 92
-3.499316 6.191301 -0.055857 61
-2.835444 6.361803 -0.201852 100
-3.181841 6.070951 -0.594846 101
-3.519927 6.230214 0.053705 76
-2.551871 6.267454 -0.626569 101
-2.842622 6.391748 -0.095238 101
-3.191906 6.102103 -0.491215 101
-2.570680 6.316691 -0.525948 101
-2.874302 6.465911 0.012350 100
-3.210654 6.140458 -0.387401 81
-2.616692 6.432851 -0.214606 100
-2.923472 6.579502 0.344570 100
-2.946482 6.101062 -0.706136 101
-3.275620 6.267274 -0.069120 100
-2.634619 6.480046 -0.108668 101
-2.970609 6.153662 -0.606237 101
-3.302453 6.321206 0.039832 86
-2.377358 6.428645 -0.436030 101
-3.025450 6.269960 -0.295435 101
-3.356586 5.961663 -0.686505 100
-2.394940 6.479538 -0.333022 101
-2.789743 6.287083 -0.923862 13
-3.036432 6.295425 -0.189129 100
-3.377951 6.001973 -0.584392 101
-2.758909 6.220418 -0.511655 101
-3.093249 6.415982 0.135519 101
-3.433591 6.103236 -0.270244 100
-2.801178 6.318589 -0.413050 100
-3.118669 6.471491 0.247096 73
-3.140633 6.021335 -0.815810 97
-3.449875 6.134595 -0.163404 52
-2.572841 6.349518 -0.422624 101
-2.872190 6.487604 0.121366 77
-3.216650 6.174676 -0.282069 101
-2.582905 6.377439 -0.318465 101
-2.887802 6.525833 0.231746 79
-2.919863 6.069392 -0.844885 92
-3.241242 6.224438 -0.176413 101
-2.647635 6.540425 -0.001232 101
-2.978805 6.194579 -0.503558 101
-3.308826 6.356835 0.150115 91
-2.356765 6.402741 -0.539356 101
-2.996332 6.233712 -0.400011 101
-3.337843 5.949425 -0.795342 101
-2.738063 6.195901 -0.719142 100
-3.046852 6.341547 -0.082275 100
-3.386517 6.038563 -0.480485 101
-2.752427 6.231242 -0.617549 101
-3.071947 6.396536 0.026008 101
-3.410194 6.083182 -0.376469 85
-2.809982 6.364436 -0.308623 100
-3.129334 6.518840 0.359983 63
-3.148667 6.059093 -0.698418 100
-3.478556 6.207574 -0.055888 65
-2.812108 6.372153 -0.201852 95
-3.161406 6.086109 -0.595192 101
-3.491204 6.232604 0.053615 72
-2.532940 6.283719 -0.627307 101
-2.821889 6.405299 -0.095292 101
-3.166896 6.106132 -0.490645 101
-2.548604 6.325630 -0.525948 101
-2.838808 6.446624 0.012294 100
-3.189190 6.151633 -0.387401 81
-2.606165 6.471617 -0.215594 93
-2.926882 6.114901 -0.706550 101
-3.257399 6.285775 -0.069198 101
-2.610492 6.485491 -0.108605 101
-2.938795 6.142428 -0.604116 101
-3.273011 6.318487 0.039743 86
-2.353541 6.433152 -0.435777 101
-3.001829 6.276873 -0.295265 101
-3.333823 5.969863 -0.686106 84
-2.369579 6.480348 -0.332637 101
-2.788533 6.343957 -0.930784 2
-3.021351 6.320409 -0.189562 101
-3.362823 6.024160 -0.585406 101
-2.740409 6.237305 -0.512255 101
-3.067407 6.419513 0.135367 101
-3.414234 6.118663 -0.270398 95
-2.783950 6.339283 -0.413766 101
-3.092643 6.475109 0.246821 58
-3.117798 6.028720 -0.815333 100
-3.420676 6.132616 -0.163033 55
-2.552195 6.362146 -0.422871 101
-2.844756 6.486581 0.121160 83
-3.189620 6.175190 -0.281583 101
-2.562169 6.390103 -0.318650 101
-2.868270 6.543172 0.232006 86
-2.895294 6.072357 -0.843889 92
-3.217713 6.232134 -0.176313 100
-2.621875 6.542177 -0.001230 101
-2.946924 6.183304 -0.501804 101
-3.284842 6.364762 0.150031 83
-2.339926 6.425891 -0.540617 54
-2.967750 6.229682 -0.399087 101
-3.296996 6.390933 0.261178 7
-3.309390 5.947119 -0.793489 101
-2.710109 6.190815 -0.717453 100
-3.019611 6.341276 -0.082135 101
-3.359667 6.039847 -0.479654 101
-2.727544 6.233479 -0.616827 101
-3.054838 6.418018 0.026052 100
-3.383192 6.084534 -0.375822 85
-2.781429 6.359524 -0.307913 100
-3.099783 6.515252 0.359187 66
-3.123934 6.062930 -0.697604 98
-3.456950 6.219633 -0.055888 65
-2.786737 6.374562 -0.201620 100
-3.131107 6.079348 -0.593463 101
-3.477288 6.258688 0.053735 57
-2.509514 6.288823 -0.626938 101
-2.797914 6.411445 -0.095238 101
-3.141914 6.110053 -0.490076 101
-2.526508 6.334487 -0.525948 101
-2.821085 6.467493 0.012315 100
-3.165871 6.159176 -0.387178 100
-2.574676 6.458391 -0.214853 90
-2.902108 6.117891 -0.705721 101
-3.224470 6.275761 -0.068963 100
-2.589318 6.498280 -0.108668 101
-2.920750 6.159849 -0.604823 101
-3.252763 6.333431 0.039765 90
-2.335146 6.452589 -0.436538 101
-2.978189 6.283702 -0.295096 100
-3.312964 5.981464 -0.686106 100
-2.351021 6.499852 -0.333215 101
-2.997559 6.327303 -0.189453 101
-3.337913 6.028888 -0.584730 101
-2.726579 6.265120 -0.513754 101
-3.050115 6.441024 0.135596 101
-3.394791 6.134040 -0.270552 98
-2.758619 6.341640 -0.413289 101
-3.066601 6.478639 0.246546 57
-3.096735 6.039567 -0.815333 100
-3.405055 6.155016 -0.163311 54
-2.528498 6.367306 -0.422624 101
-2.820503 6.492804 0.121092 83
-3.166224 6.182729 -0.281421 101
-2.542796 6.406435 -0.319020 101
-2.845413 6.553144 0.232006 78
-2.875776 6.086015 -0.844387 92
-3.194117 6.239768 -0.176212 100
-2.932138 6.207982 -0.502973 101
-3.266249 6.383310 0.150199 83
-2.947691 6.243614 -0.399318 101
-3.281949 6.416638 0.261759 57
-3.282851 5.948199 -0.792099 101
-2.693229 6.211185 -0.718720 100
-3.000871 6.359012 -0.082228 101
-3.350129 6.072501 -0.481316 100
-2.710521 6.253927 -0.617910 101
-3.029003 6.421407 0.026023 101
-3.371577 6.113794 -0.376900 76
-2.765568 6.383861 -0.308623 100
-3.078725 6.529646 0.359386 61
-3.108182 6.084429 -0.698825 81
-3.441011 6.242170 -0.055983 71
-2.762880 6.380582 -0.201504 100
-3.109867 6.090240 -0.593463 101
-3.447698 6.256775 0.053615 63
-2.487546 6.297544 -0.626938 101
-2.778690 6.428515 -0.095346 100
-3.127815 6.135201 -0.491215 101
-2.504381 6.343268 -0.525948 101
-2.801665 6.484644 0.012329 98
-3.140726 6.163073 -0.386731 83
-2.552116 6.467340 -0.214853 100
-2.882428 6.131584 -0.706136 101
-3.206175 6.294106 -0.069041 100
-2.568087 6.510999 -0.108730 101
-2.904314 6.180825 -0.605884 101
-3.228820 6.341183 0.039743 88
-2.313953 6.464459 -0.436792 101
-2.951140 6.283207 -0.294587 100
-3.293980 5.996480 -0.686505 95
-2.339084 6.538114 -0.334756 17
-2.970356 6.326869 -0.189129 101
-3.313011 6.033515 -0.584054 101
-2.693640 6.248959 -0.511655 101
-3.022516 6.440771 0.135367 101
-3.367589 6.135341 -0.270090 99
-2.742786 6.365899 -0.414243 101
-3.055852 6.514638 0.247509 65
-3.068435 6.036178 -0.813424 100
-3.381626 6.163359 -0.163218 53
-2.507717 6.379809 -0.422871 101
-2.800983 6.509957 0.121229 80
-3.150051 6.204434 -0.281907 101
-2.516035 6.404115 -0.318465 101
-2.819362 6.555692 0.231746 78
-2.852831 6.092422 -0.843889 92
-3.174127 6.254446 -0.176313 101
-2.901994 6.200114 -0.501512 101
-3.240329 6.387539 0.150031 81
-2.927571 6.257483 -0.399549 101
-3.270377 6.449446 0.262630 77
-3.248714 5.935226 -0.788857 101
-2.671532 6.220549 -0.718720 100
-2.970184 6.351333 -0.081994 101
-3.319335 6.066655 -0.479931 101
-2.687102 6.259690 -0.617549 101
