# This PCD file was generated using the MATLAB® pcwrite function
# from Computer Vision Toolbox®.
# .PCD v.7 - Point Cloud Data file format
VERSION .7
FIELDS x y z intensity
SIZE 4 4 4 1
TYPE F F F U
COUNT 1 1 1 1
WIDTH 1472
HEIGHT 1
VIEWPOINT 0 0 0 1 0 0 0
POINTS 1472
DATA ascii
-1.188129 6.850285 -0.321794 101
-1.455387 7.051581 0.233823 66
-1.884348 6.888667 -0.179529 100
-0.526546 6.863205 -0.252402 101
-0.950460 6.755052 -0.644830 101
-1.210802 6.987876 -0.001238 101
-1.632145 6.812438 -0.513202 101
-0.530223 6.926159 -0.147933 101
-0.953939 6.787912 -0.541878 101
-1.218375 7.038504 0.108473 101
-1.632661 6.819569 -0.405554 100
-0.966944 6.888721 -0.228332 100
-1.236158 7.148268 0.444967 59
-1.378765 6.697123 -0.725898 56
-1.661135 6.943577 -0.083491 101
-0.971175 6.927187 -0.122097 100
-1.242493 7.191986 0.560309 15
-1.392583 6.769912 -0.626577 101
-1.668459 6.979293 0.026301 101
-0.737824 6.841565 -0.451020 101
-0.986968 7.048317 0.203771 100
-1.206848 6.992556 -1.041763 84
-1.415105 6.885169 -0.311813 100
-0.737347 6.847767 -0.345283 101
-0.990787 7.084126 0.314812 99
-1.158175 6.717171 -0.736875 101
-1.414762 6.889282 -0.203822 99
-0.737431 6.892480 -0.240853 101
-0.989601 7.110810 0.426531 56
-1.156070 6.732242 -0.632470 101
-1.416964 6.923841 -0.096218 100
-0.742119 6.947163 -0.135371 101
-1.165229 6.792313 -0.531485 101
-1.427166 6.979571 0.012434 100
-0.752294 7.053465 0.189466 101
-1.182538 6.900059 -0.216335 98
-1.453975 7.116677 0.347629 101
-1.880484 6.929015 -0.070175 100
-0.512456 6.859571 -0.358089 101
-1.185193 6.922427 -0.109102 101
-0.516762 6.932644 -0.041254 101
-0.943569 6.813067 -0.437554 101
-1.205208 7.046338 0.218411 101
-1.624866 6.847521 -0.298657 101
-0.949274 6.862611 -0.333985 101
-1.213430 7.101480 0.330930 72
-1.635671 6.898133 -0.191834 100
-0.960186 6.949970 -0.014694 100
-1.380785 6.781317 -0.520352 101
-1.668026 7.039775 0.137650 101
-0.722892 6.831368 -0.556328 100
-0.963328 6.981229 0.093485 99
-1.393830 6.851181 -0.417822 100
-0.731069 6.941553 -0.028019 101
-1.157686 6.809157 -0.426072 101
-1.422136 7.008114 0.122323 80
-1.862576 6.899137 -0.289517 66
-0.738663 7.024817 0.080137 101
-1.161533 6.838633 -0.321054 101
-1.433147 7.068373 0.234213 74
-1.862374 6.902925 -0.179730 101
-0.503169 6.872975 -0.252695 101
-0.925793 6.750438 -0.644077 101
-1.187741 6.999948 -0.001239 101
-1.601944 6.790914 -0.511157 100
-0.505752 6.923979 -0.147848 101
-0.930238 6.791200 -0.541878 101
-1.193799 7.042714 0.108473 101
-1.611595 6.836887 -0.406246 101
-0.943434 6.896016 -0.228463 100
-1.211865 7.156476 0.445212 59
-1.358533 6.717490 -0.727588 63
-1.636887 6.949333 -0.083491 101
-0.947530 6.934498 -0.122167 100
-1.216715 7.192347 0.560003 101
-1.366576 6.763018 -0.625494 101
-1.645003 6.988968 0.026316 101
-0.711453 6.820280 -0.449450 101
-0.961818 7.047758 0.203656 101
-1.183751 7.004530 -1.042925 55
-1.390272 6.886149 -0.311636 100
-0.713025 6.846326 -0.345082 101
-0.965513 7.083581 0.314636 100
-1.132072 6.705487 -0.735155 101
-1.390706 6.894178 -0.203822 100
-0.712183 6.883078 -0.240436 101
-0.963753 7.106301 0.426057 64
-1.130632 6.724445 -0.631364 101
-1.392838 6.928735 -0.096218 101
-0.718307 6.953686 -0.135449 101
-1.138240 6.776668 -0.529947 101
-1.400463 6.972739 0.012413 100
-0.727271 7.052070 0.189359 101
-1.158457 6.904143 -0.216335 95
-1.425206 7.102120 0.346673 100
-1.854230 6.927806 -0.070097 98
-0.488502 6.861318 -0.358089 76
-1.161015 6.926523 -0.109102 101
-1.868627 6.986303 0.040391 26
-0.493100 6.942388 -0.041301 101
-0.919755 6.816323 -0.437554 101
-1.177936 7.034733 0.217923 101
-1.596382 6.833700 -0.297809 100
-0.924734 6.861929 -0.333793 101
-1.185950 7.089916 0.330196 71
-1.610627 6.899918 -0.191725 100
-0.934788 6.945360 -0.014678 97
-1.356259 6.782197 -0.520052 101
-1.638834 7.026097 0.137270 100
-0.694902 6.794196 -0.553099 15
-0.939933 6.992489 0.093592 99
-1.368258 6.848190 -0.417345 100
-0.707095 6.948056 -0.028035 101
-1.132459 6.805304 -0.425580 101
-1.395175 7.001298 0.122118 78
-1.827030 6.863150 -0.287736 101
-0.712760 7.015431 0.080001 101
-1.140770 6.862381 -0.321979 101
-1.404396 7.053761 0.233564 83
-1.838105 6.909426 -0.179730 97
-0.477327 6.850776 -0.251816 101
-0.901519 6.749705 -0.643701 101
-1.161150 6.992244 -0.001237 101
-1.569028 6.757647 -0.508234 100
-0.481378 6.925717 -0.147848 101
-0.905275 6.786527 -0.541247 101
-1.168349 7.042926 0.108412 101
-1.585715 6.834737 -0.405785 101
-0.917025 6.883445 -0.227938 100
-1.183385 7.141007 0.443987 74
-1.334087 6.718332 -0.727165 83
-1.606978 6.931678 -0.083211 101
-0.922023 6.929866 -0.122027 101
-1.188095 7.176918 0.558472 100
-1.341951 6.763886 -0.625133 101
-1.616743 6.979136 0.026257 100
-0.687786 6.826718 -0.449712 101
-0.935367 7.039217 0.203313 101
-1.160322 7.016472 -1.044087 60
-1.361305 6.867493 -0.310572 101
-0.687647 6.836876 -0.344482 101
-0.941547 7.094869 0.314988 100
-1.109037 6.713367 -0.735585 101
-1.364024 6.887279 -0.203474 100
-0.690549 6.897335 -0.240853 101
-0.939135 7.101541 0.425583 64
-1.107679 6.724227 -0.630995 101
-1.367528 6.921545 -0.096054 101
-0.694846 6.952051 -0.135371 101
-1.115114 6.776470 -0.529639 101
-1.378108 6.981269 0.012420 101
-0.702690 7.042506 0.189039 101
-1.136853 6.915837 -0.216583 100
-1.400874 7.102887 0.346482 100
-1.830225 6.930050 -0.070058 100
-1.136743 6.922441 -0.108978 101
-1.556700 6.759825 -0.615428 34
-1.848511 7.004064 0.040458 100
-0.471426 6.963939 -0.041420 100
-0.894543 6.799547 -0.436284 101
-1.154602 7.038601 0.217923 101
-1.577296 6.854534 -0.298487 100
-0.900412 6.853074 -0.333215 101
-1.165017 7.109582 0.330930 78
-1.397915 7.106776 -0.972851 60
-1.585945 6.897427 -0.191509 100
-0.911751 6.948421 -0.014678 100
-1.330685 6.771002 -0.518853 101
-1.610152 7.008106 0.136813 100
-0.917260 6.999533 0.093645 100
-1.343233 6.840936 -0.416629 100
-0.684051 6.950363 -0.028035 101
-1.109885 6.809022 -0.425580 101
-1.369644 6.994112 0.121913 75
-1.799184 6.849843 -0.286926 101
-0.687536 6.997854 0.079774 101
-1.112228 6.830632 -0.320314 101
-1.380229 7.054455 0.233434 89
-1.806045 6.880674 -0.178826 100
-0.455665 6.868275 -0.252402 101
-0.878617 6.748708 -0.643324 101
-1.136672 6.988160 -0.001236 101
-1.543942 6.751146 -0.507357 100
-0.457881 6.919294 -0.147677 101
-0.883279 6.793446 -0.541562 101
-1.143704 7.038866 0.108291 101
-1.562152 6.836065 -0.405554 101
-0.894193 6.886448 -0.227938 100
-1.159058 7.140951 0.443742 62
-1.309516 6.711007 -0.725898 100
-1.583092 6.933069 -0.083164 101
-0.898009 6.924953 -0.121888 100
-1.164289 7.180819 0.558472 100
-1.319513 6.768299 -0.625133 101
-1.592701 6.980560 0.026243 101
-0.664757 6.824989 -0.449450 101
-0.913046 7.050210 0.203542 100
-1.135783 7.012468 -1.042925 62
-1.340817 6.883736 -0.311104 100
-0.665745 6.847071 -0.344882 101
-0.916989 7.090026 0.314636 100
-1.087404 6.720933 -0.736015 101
-1.340413 6.887840 -0.203358 100
-0.665316 6.887766 -0.240436 101
-0.915869 7.116657 0.426294 47
-1.083567 6.724120 -0.630626 101
-1.339551 6.906643 -0.095782 101
-0.669039 6.938510 -0.135061 101
-1.090185 6.772446 -0.529024 101
-1.350686 6.970329 0.012392 100
-1.110801 6.907921 -0.216212 100
-1.373034 7.092043 0.345717 101
-1.800984 6.917043 -0.069862 101
-1.111303 6.918469 -0.108854 101
-1.377494 7.121499 0.458893 0
-1.530453 6.753560 -0.614367 101
-1.815994 6.979505 0.040279 89
-0.871817 6.810547 -0.436792 101
-1.130025 7.042588 0.217923 101
-1.549830 6.844408 -0.297809 100
-0.874965 6.844286 -0.332637 101
-1.137663 7.097824 0.330196 75
-1.310720 6.788534 -0.928654 101
-1.558329 6.887321 -0.191076 100
-0.887491 6.951561 -0.014678 100
-1.307797 6.779522 -0.519153 101
-1.585680 7.013684 0.136813 101
-0.892315 6.998725 0.093592 94
-1.320857 6.853424 -0.417107 100
-1.601468 7.089061 0.249984 64
-0.659030 6.944744 -0.028003 101
-1.086111 6.812855 -0.425580 101
-1.345222 6.998850 0.121913 85
-1.768250 6.828998 -0.285793 101
-0.663482 7.004193 0.079819 101
-1.087121 6.826581 -0.319944 101
-1.353334 7.047452 0.233044 82
-1.786023 6.902421 -0.179228 100
-0.430434 6.849877 -0.251669 101
-0.856055 6.759635 -0.644077 101
-1.110386 6.980234 -0.001234 101
-1.525621 6.779846 -0.509111 100
-0.433975 6.924841 -0.147762 101
-0.860061 6.800444 -0.541878 101
-1.118499 7.038866 0.108230 101
-1.537404 6.837580 -0.405323 101
-0.871152 6.897460 -0.228201 100
-1.134125 7.144953 0.443742 72
-1.288327 6.727257 -0.727165 100
-1.558005 6.934650 -0.083117 100
-0.874331 6.932014 -0.121957 100
-1.139841 7.188778 0.558779 101
-1.295131 6.768951 -0.624772 101
-1.567448 6.982174 0.026228 101
-0.640929 6.827268 -0.449450 101
-0.888930 7.057321 0.203656 100
-1.113155 7.028116 -1.044668 65
-1.315279 6.880525 -0.310750 100
-0.640722 6.837421 -0.344281 101
-0.892734 7.097149 0.314812 93
-1.061451 6.708976 -0.734295 101
-1.316362 6.892477 -0.203358 100
-0.640125 6.878109 -0.240020 101
-1.058817 6.719998 -0.629889 101
-1.317645 6.923071 -0.095945 101
-0.644055 6.932841 -0.134906 101
-1.066519 6.776214 -0.529024 101
-1.324832 6.967146 0.012378 100
-1.754423 6.831296 -0.394323 100
-1.084190 6.895959 -0.215718 100
-1.350499 7.108570 0.346291 101
-1.778809 6.931037 -0.069941 100
-1.087151 6.922306 -0.108854 101
-1.363054 7.181171 0.462429 29
-1.498204 6.719971 -0.610833 101
-1.791625 6.985800 0.040279 87
-0.848548 6.817508 -0.437046 101
-1.104833 7.042537 0.217801 101
-1.526815 6.853673 -0.297979 101
-0.851098 6.847295 -0.332637 101
-1.112292 7.097800 0.330012 71
-1.262691 6.664524 -0.911082 100
-1.533439 6.888810 -0.190968 100
-0.862277 6.946673 -0.014661 100
-1.282681 6.776200 -0.518553 101
-1.556021 6.995744 0.136356 101
-0.865475 6.981944 0.093326 97
-1.296980 6.857983 -0.417107 99
-1.569830 7.063377 0.248884 80
-0.634148 6.939027 -0.027971 101
-1.060569 6.804756 -0.424841 101
-1.321617 7.007415 0.121981 81
-1.744493 6.835105 -0.285793 101
-0.638408 6.998490 0.079728 101
-1.065847 6.846110 -0.320684 101
-1.331053 7.063899 0.233434 87
-1.760046 6.900838 -0.179027 101
-0.407347 6.863302 -0.252109 101
-0.831595 6.754663 -0.643324 101
-1.087976 6.995906 -0.001236 101
-1.506372 6.804580 -0.510572 100
-0.409457 6.918323 -0.147592 101
-0.835471 6.795474 -0.541247 101
-1.094668 7.046659 0.108291 101
-1.512793 6.838978 -0.405092 101
-0.847211 6.900442 -0.228201 100
-1.108711 7.144901 0.443498 74
-1.265709 6.735597 -0.727588 100
-1.535658 6.947826 -0.083211 101
-0.850283 6.935005 -0.121957 100
-1.114290 7.188747 0.558472 101
-1.269441 6.761656 -0.623688 101
-1.539772 6.971945 0.026169 101
-0.616180 6.817523 -0.448665 100
-0.862030 7.040517 0.203084 101
-1.091813 7.051488 -1.047573 44
-1.290683 6.881115 -0.310572 101
-0.617028 6.839600 -0.344281 101
-0.867168 7.092266 0.314460 100
-1.039415 6.720473 -0.735155 101
-1.293210 6.900926 -0.203474 100
-0.618742 6.896120 -0.240575 101
-1.037741 6.731345 -0.630626 101
-1.293945 6.923470 -0.095891 100
-0.622488 6.950872 -0.135216 101
-1.044649 6.783655 -0.529332 101
-1.301721 6.971501 0.012378 100
-1.726857 6.817719 -0.393207 93
-1.060100 6.891613 -0.215471 100
-1.325453 7.105155 0.345908 100
-1.757778 6.944654 -0.070019 100
-1.064798 6.929826 -0.108916 101
-1.333381 7.154256 0.460409 84
-1.477619 6.732686 -0.611539 101
-1.769430 6.995581 0.040302 79
-0.824016 6.804432 -0.436030 101
-1.080866 7.042211 0.217679 101
-1.499799 6.839180 -0.297131 101
-0.827907 6.846113 -0.332445 101
-1.088749 7.101449 0.330012 71
-1.236958 6.649187 -0.908420 100
-1.509731 6.889951 -0.190860 100
-0.841154 6.965379 -0.014694 100
-1.260933 6.784338 -0.518853 101
-1.531103 6.993052 0.136204 101
-0.843754 6.996688 0.093485 92
-1.272773 6.854394 -0.416629 100
-1.548962 7.080259 0.249296 68
-1.972901 6.897456 -0.166561 33
-0.610081 6.929138 -0.027923 101
-1.035591 6.792449 -0.423856 101
-1.296188 6.999962 0.121776 81
-1.716939 6.821474 -0.284983 101
-0.616247 7.012522 0.079865 101
-1.041334 6.837757 -0.320129 101
-1.305439 7.056480 0.233044 84
-1.735201 6.898880 -0.178826 90
-0.385033 6.872597 -0.252402 101
-1.063568 6.991567 -0.001234 101
-1.482949 6.805640 -0.510280 101
-0.386290 6.915649 -0.147507 101
-0.811985 6.790288 -0.540617 101
-1.069492 7.038388 0.108109 101
-1.488407 6.836153 -0.404630 101
-0.823376 6.895274 -0.227938 100
-1.084413 7.144591 0.443253 76
-1.240479 6.724110 -0.725898 100
-1.510059 6.941155 -0.083070 100
-0.827281 6.937786 -0.121957 99
-1.089250 7.184516 0.557860 101
-1.247733 6.769746 -0.624050 101
-1.517493 6.980922 0.026184 101
-0.837733 7.035396 0.202855 101
-1.069608 7.062895 -1.048735 49
-1.270752 6.901077 -0.311282 101
-1.977261 6.952065 -0.056768 37
-0.595035 6.849568 -0.344682 101
-0.843173 7.091135 0.314284 100
-1.014744 6.708155 -0.733435 101
-1.266701 6.885515 -0.202895 100
-0.593293 6.882306 -0.240020 101
-1.014237 6.734926 -0.630626 101
-1.268328 6.920077 -0.095782 100
-0.596507 6.933080 -0.134829 101
-1.019184 6.775429 -0.528409 101
-1.278819 6.983872 0.012392 100
-1.698213 6.804331 -0.392090 83
-1.038414 6.911087 -0.215965 98
-1.301362 7.113668 0.346099 101
-1.453916 6.731474 -0.717746 100
-1.729654 6.935223 -0.069862 100
-1.040008 6.929545 -0.108854 101
-1.306964 7.151013 0.459904 88
-1.459152 6.761171 -0.613660 101
-1.740163 6.982308 0.040190 84
-0.801191 6.815197 -0.436538 101
-1.056871 7.049894 0.217801 101
-1.476759 6.848280 -0.297300 100
-0.804471 6.852930 -0.332637 101
-1.064545 7.109158 0.330196 77
-1.216587 6.669064 -0.910550 101
-1.485671 6.895179 -0.190860 100
-0.814973 6.952381 -0.014661 100
-1.236528 6.784774 -0.518553 101
-1.505000 6.990534 0.136052 101
-0.818396 6.991646 0.093379 94
-1.248839 6.858796 -0.416629 100
-1.522556 7.077806 0.249021 71
-1.939035 6.869664 -0.165725 61
-0.587238 6.947169 -0.027987 101
-1.013638 6.807868 -0.424595 101
-1.272460 7.008379 0.121845 83
-1.697927 6.846821 -0.285793 101
-0.590420 6.998688 0.079683 101
-1.016872 6.837398 -0.319944 101
-1.278659 7.049193 0.232655 75
-1.707262 6.889370 -0.178424 101
-1.037393 6.983367 -0.001232 101
-1.459184 6.810775 -0.510280 101
-0.787818 6.789120 -0.540301 101
-1.045504 7.046034 0.108169 101
-1.466207 6.849116 -0.405092 101
-0.798381 6.890163 -0.227676 100
-1.058296 7.140434 0.442763 72
-1.216292 6.724485 -0.725476 100
-1.484984 6.942473 -0.083023 101
-0.802139 6.932686 -0.121818 101
-1.062412 7.176439 0.556942 100
-1.224095 6.774061 -0.624050 101
-1.493952 6.990088 0.026199 101
-0.813170 7.038278 0.202855 100
-1.047263 7.082246 -1.051059 38
-1.243105 6.885808 -0.310395 101
-1.948658 6.943520 -0.056642 62
-0.570790 6.847622 -0.344482 101
-0.818873 7.098004 0.314460 93
-0.993065 6.723459 -0.734725 101
-1.245497 6.905634 -0.203358 100
-0.569906 6.892305 -0.240297 101
-0.989546 6.730547 -0.629889 101
-1.245561 6.932339 -0.095891 101
-1.672976 6.799418 -0.499468 12
-0.572949 6.943092 -0.134984 101
-0.994357 6.771055 -0.527794 101
-1.250181 6.964673 0.012350 101
-1.679207 6.829611 -0.393207 100
-1.013118 6.906758 -0.215718 100
-1.272287 7.094572 0.344952 100
-1.435363 6.759860 -0.720233 101
-1.705431 6.941219 -0.069862 100
-1.015816 6.933133 -0.108854 101
-1.280589 7.147672 0.459399 86
-1.436372 6.770120 -0.614014 101
-1.716736 6.992224 0.040212 77
-0.776502 6.810018 -0.436030 101
-1.030528 7.041671 0.217434 101
-1.454512 6.861210 -0.297639 100
-0.779205 6.843785 -0.332059 101
-1.038584 7.104921 0.329829 76
-1.191222 6.661560 -0.908952 101
-1.459124 6.888584 -0.190535 100
-0.791175 6.959156 -0.014669 100
-1.213562 6.792971 -0.518853 101
-1.484753 7.015303 0.136433 101
-0.794016 6.994456 0.093379 100
-1.222815 6.851315 -0.415913 100
-1.492082 7.055694 0.248059 64
-1.919366 6.891791 -0.166096 56
-0.562713 6.945185 -0.027971 101
-0.988770 6.803456 -0.424102 101
-1.245938 7.000956 0.121639 79
-1.668377 6.829399 -0.284821 101
-0.991908 6.832989 -0.319575 101
-1.254804 7.057539 0.232785 82
-1.683261 6.895274 -0.178424 100
-1.012502 6.982977 -0.001232 101
-1.433821 6.808006 -0.509695 101
-1.719246 7.047740 0.151958 84
-0.765077 6.799746 -0.540932 101
-1.020975 7.049630 0.108169 101
-1.439894 6.842454 -0.404399 101
-0.774404 6.892900 -0.227676 100
-1.032303 7.136170 0.442273 76
-1.191500 6.720843 -0.724632 100
-1.457528 6.931941 -0.082836 100
-0.778467 6.939408 -0.121888 101
-1.039155 7.191933 0.557860 100
-1.201915 6.786123 -0.624772 101
-1.470452 6.999156 0.026213 101
-0.789136 7.045036 0.202969 101
-1.029414 7.132849 -1.058032 59
-1.220546 6.897960 -0.310750 100
-1.489647 7.096354 0.360977 3
-1.922367 6.942544 -0.056580 59
-0.545075 6.825671 -0.343280 101
-0.969120 6.722934 -0.734295 101
-1.216612 6.882361 -0.202547 100
-0.544266 6.874327 -0.239603 101
-0.964914 6.726075 -0.629151 101
-1.219968 6.928766 -0.095782 101
-1.643593 6.781950 -0.497760 101
-0.548395 6.941063 -0.134906 101
-0.971281 6.778432 -0.528101 101
-1.227941 6.980813 0.012371 100
-1.651597 6.819905 -0.392314 82
-0.989003 6.910253 -0.215718 95
-1.247515 7.098970 0.344952 101
-1.407695 6.745356 -0.718160 101
-1.681191 6.947130 -0.069862 100
-0.991042 6.932677 -0.108792 101
-1.252870 7.136371 0.458388 74
-1.409478 6.759491 -0.612600 101
-1.686677 6.974847 0.040078 89
-0.752287 6.808719 -0.435777 101
-1.006507 7.049183 0.217556 101
-1.427292 6.850596 -0.296961 101
-0.757502 6.866320 -0.333022 101
-1.013213 7.104547 0.329645 86
-1.167277 6.661772 -0.908420 101
-1.440774 6.921038 -0.191293 100
-0.766878 6.961874 -0.014669 100
-1.188467 6.789308 -0.518253 101
-1.456998 7.004781 0.136128 101
-1.881764 6.844759 -0.273946 1
-0.769596 6.997185 0.093379 100
-1.200268 6.863409 -0.416391 100
-1.473951 7.092171 0.249159 64
-1.893178 6.890737 -0.165911 50
-0.538157 6.943119 -0.027955 101
-0.965016 6.806866 -0.424102 101
-1.221493 7.005262 0.121639 86
-1.644528 6.835181 -0.284821 101
-0.969171 6.844322 -0.319944 101
-1.229475 7.057938 0.232655 80
-1.661051 6.908883 -0.178625 100
-0.986440 6.974587 -0.001229 101
-1.409240 6.809063 -0.509403 101
-1.689029 7.030367 0.151456 85
-0.739177 6.782555 -0.539356 101
-0.995802 7.049191 0.108109 101
-1.414384 6.839618 -0.403937 101
-0.750771 6.899535 -0.227807 100
-1.006272 7.131823 0.441783 80
-1.170075 6.736718 -0.725898 100
-1.435750 6.948738 -0.082977 100
-0.753375 6.934132 -0.121748 101
-1.176177 6.778502 -0.623688 101
-1.445203 7.000329 0.026199 101
-0.762814 7.031847 0.202512 101
-1.195096 6.894303 -0.310395 100
-1.471323 7.132812 0.362568 64
-1.899176 6.953071 -0.056611 57
-0.523070 6.851433 -0.344482 101
-0.945093 6.722338 -0.733865 101
-1.192581 6.886566 -0.202547 100
-0.520569 6.880171 -0.239742 101
-0.941982 6.733347 -0.629520 101
-1.196454 6.936924 -0.095837 101
-1.618984 6.783765 -0.497476 101
-0.524464 6.946923 -0.134984 101
-0.947062 6.777832 -0.527794 101
-1.202208 6.977173 0.012357 100
-1.627781 6.825628 -0.392314 72
-0.966534 6.925542 -0.216088 100
-1.223405 7.107219 0.345143 101
-1.379345 6.726844 -0.715672 101
-1.654149 6.941284 -0.069745 101
-0.967389 6.940056 -0.108854 101
-1.230659 7.156438 0.459399 72
-1.388273 6.776080 -0.613660 101
-1.667880 7.004039 0.040212 98
-0.728516 6.811304 -0.435777 101
-0.980792 7.044734 0.217312 101
-1.401768 6.847706 -0.296622 100
-0.731832 6.853031 -0.332252 101
-0.987307 7.100125 0.329278 74
-1.141334 6.650177 -0.906290 100
-1.410196 6.894685 -0.190427 100
-0.742148 6.960532 -0.014661 100
-1.162738 6.781621 -0.517353 101
-1.430937 7.001988 0.135976 101
-1.857860 6.851286 -0.273946 83
-0.743896 6.987897 0.093220 84
-1.174955 6.859685 -0.415913 100
-1.443588 7.069855 0.248196 69
-1.869114 6.897303 -0.165911 52
-0.513327 6.936977 -0.027923 101
-0.939609 6.798329 -0.423363 101
-1.195686 7.001599 0.121503 92
-1.616052 6.821434 -0.284012 101
-0.944181 6.839747 -0.319575 101
-1.203486 7.054305 0.232395 83
-1.630476 6.887401 -0.177921 100
-0.962634 6.981951 -0.001230 101
-1.225373 7.189773 0.574007 9
-1.383873 6.806122 -0.508819 101
-1.658954 7.012870 0.150953 84
-0.716751 6.796990 -0.540301 101
-0.969007 7.036775 0.107866 101
-1.389705 6.840600 -0.403706 101
-0.726682 6.902113 -0.227807 100
-0.981371 7.135292 0.441783 72
-1.145885 6.736840 -0.725476 100
-1.410690 6.949787 -0.082930 101
-0.728329 6.928764 -0.121608 101
-1.150506 6.770784 -0.622605 101
-1.419168 6.997491 0.026169 101
-0.739933 7.050374 0.202969 101
-1.167010 6.874794 -0.309332 100
-1.439275 7.102666 0.360778 83
-1.874893 6.959658 -0.056611 60
-0.498570 6.845248 -0.344081 101
-1.168535 6.890687 -0.202547 100
-0.496888 6.885930 -0.239881 101
-0.917446 6.728694 -0.628782 101
-1.167621 6.913443 -0.095455 101
-1.598082 6.801016 -0.498329 101
-0.499094 6.932754 -0.134674 101
-0.922352 6.773189 -0.527179 101
-1.177877 6.981322 0.012357 100
-1.600325 6.815710 -0.391420 88
-0.940210 6.913026 -0.215594 100
-1.196609 7.099624 0.344570 100
-1.351940 6.712115 -0.713599 101
-1.630836 6.950907 -0.069784 100
-0.939920 6.919612 -0.108481 101
-1.205663 7.160692 0.459399 81
-1.362246 6.769167 -0.612600 101
-1.637023 6.982559 0.040056 89
-0.704298 6.809837 -0.435523 101
-0.957781 7.060004 0.217679 101
-1.378617 6.856481 -0.296792 101
-0.707450 6.851574 -0.332059 101
-0.961396 7.095615 0.328911 77
-1.179163 7.017721 -0.955811 48
-1.384500 6.891735 -0.190211 101
-0.717780 6.963087 -0.014661 97
-1.138995 6.785649 -0.517353 101
-1.407207 7.010875 0.136052 101
-1.831803 6.850025 -0.273637 90
-0.719823 6.994439 0.093273 87
-1.151579 6.867697 -0.416152 100
-1.418814 7.074869 0.248196 64
-1.841844 6.892218 -0.165632 54
-0.489810 6.950707 -0.027971 101
-0.916265 6.805543 -0.423610 101
-1.171753 7.009699 0.121571 92
-1.592089 6.827067 -0.284012 101
-0.916944 6.819262 -0.318465 101
-1.177372 7.050604 0.232135 90
-1.333887 6.674675 -0.853846 20
-1.604448 6.885299 -0.177720 100
-0.937541 6.981329 -0.001229 101
-1.196143 7.170438 0.572124 52
-1.357584 6.799211 -0.507942 101
-1.637001 7.030346 0.151204 96
-0.694036 6.811372 -0.541247 54
-0.945297 7.048070 0.107987 101
-1.363276 6.833700 -0.403013 101
-0.703174 6.912585 -0.228069 100
-0.958351 7.154533 0.442763 76
-1.121494 6.736911 -0.725054 100
-1.386200 6.954713 -0.082930 100
-0.703494 6.927310 -0.121539 101
-1.125976 6.770868 -0.622244 101
-1.394491 7.002450 0.026169 100
-0.714247 7.044984 0.202740 100
-1.146022 6.898580 -0.310218 101
-1.413428 7.103781 0.360579 90
-1.844166 6.943034 -0.056422 66
-0.474949 6.854937 -0.344482 68
-1.142888 6.886881 -0.202315 101
-1.574910 6.789536 -0.604876 40
-1.849160 6.966559 0.054095 5
-0.473396 6.895598 -0.240159 101
-0.894477 6.735804 -0.629151 101
-1.143482 6.917477 -0.095455 101
-1.567140 6.775455 -0.496053 101
-0.475165 6.938443 -0.134751 101
-0.898703 6.776367 -0.527179 101
-1.152197 6.977498 0.012343 100
-1.577423 6.825145 -0.391644 95
-0.915548 6.912302 -0.215471 100
-1.169218 7.087989 0.343805 101
-1.330046 6.724599 -0.714428 101
-1.602062 6.937071 -0.069589 100
-0.917334 6.934746 -0.108668 101
-1.180660 7.164856 0.459399 86
-1.338609 6.773881 -0.612600 101
-1.612639 6.988231 0.040056 93
-0.679333 6.800338 -0.434761 101
-0.928942 7.031595 0.216701 101
-1.353901 6.857331 -0.296622 101
-0.683529 6.854002 -0.332059 101
-0.939235 7.118735 0.329829 84
-1.151443 7.002234 -0.953149 51
-1.360435 6.896525 -0.190211 100
-0.693470 6.965550 -0.014661 97
-1.114655 6.785648 -0.517053 101
-1.381953 7.011820 0.135976 101
-1.805843 6.848647 -0.273329 86
-0.695404 6.996909 0.093273 99
-1.125013 6.855914 -0.415198 101
-1.393337 7.075856 0.248059 73
-1.817775 6.898605 -0.165632 54
-0.892504 6.808700 -0.423610 101
-1.144695 6.997959 0.121297 91
-1.570931 6.844269 -0.284497 101
-0.894691 6.834307 -0.319020 101
-1.152109 7.050725 0.232006 76
-1.308287 6.667607 -0.852353 65
-1.582192 6.898653 -0.177921 101
-0.912647 6.980593 -0.001229 101
-1.170464 7.170634 0.571810 57
-1.336145 6.815652 -0.508819 101
-1.609770 7.024323 0.150953 99
-0.672988 6.841532 -0.543454 16
-0.918617 7.035464 0.107744 101
-1.340181 6.842336 -0.403244 101
-0.677478 6.899083 -0.227545 100
-0.931822 7.145958 0.442028 54
-1.096692 6.732933 -0.724209 100
-1.358843 6.943809 -0.082743 101
-0.679309 6.929723 -0.121539 101
-1.101695 6.770825 -0.621883 101
-1.366969 6.991573 0.026111 101
-1.789133 6.827186 -0.380997 6
-1.118088 6.878872 -0.309154 100
-1.385558 7.092988 0.359784 71
-1.811813 6.918474 -0.056171 72
-1.118841 6.890829 -0.202315 100
-1.538783 6.740601 -0.600034 101
-1.829894 6.992319 0.054245 81
-0.448803 6.889231 -0.239881 101
-0.869938 6.730985 -0.628413 101
-1.120605 6.929323 -0.095564 101
-1.541708 6.773103 -0.495483 101
-0.451461 6.948041 -0.134906 101
-0.878107 6.803195 -0.529024 101
-1.129748 6.993323 0.012364 100
-1.553589 6.830610 -0.391644 100
-0.890903 6.911490 -0.215347 100
-1.148288 7.115694 0.344952 101
-1.308839 6.740918 -0.715672 101
-1.580497 6.954322 -0.069706 100
-0.893632 6.941873 -0.108730 101
-1.155643 7.168934 0.459399 84
-1.315715 6.782424 -0.612953 101
-1.587350 6.989917 0.040033 93
-0.656357 6.810615 -0.435269 101
-0.903372 7.026864 0.216457 101
-1.329196 6.858091 -0.296452 100
-0.658835 6.848392 -0.331674 101
-0.911837 7.102154 0.328911 77
-1.132660 7.041438 -0.957941 35
-1.337113 6.905158 -0.190319 101
-0.667240 6.948020 -0.014619 100
-1.090962 6.789497 -0.517053 101
-1.358228 7.020528 0.136052 101
-1.780920 6.851040 -0.273175 94
-0.669067 6.979387 0.093008 90
-1.101074 6.859799 -0.415198 100
-1.364836 7.061051 0.247371 71
-1.788656 6.885556 -0.165168 52
-0.868227 6.807813 -0.423363 101
-1.120261 7.001912 0.121297 92
-1.547031 6.849711 -0.284497 101
-0.869820 6.829461 -0.318650 101
-1.127490 7.054704 0.232006 86
-1.284254 6.668236 -0.851855 67
-1.556341 6.896333 -0.177720 100
-0.888780 6.987704 -0.001229 101
-1.147941 7.190427 0.573065 52
-1.310084 6.808522 -0.507942 101
-1.586121 7.033801 0.151037 71
-0.893549 7.034660 0.107683 101
-1.317796 6.854815 -0.403706 101
-1.595663 7.081670 0.263646 32
-0.654522 6.913346 -0.227938 100
-1.071931 6.728864 -0.723365 100
-1.334596 6.948509 -0.082743 101
-0.655116 6.932052 -0.121539 101
-1.076802 6.766761 -0.621160 101
-1.341048 6.988445 0.026081 101
-1.765291 6.833390 -0.380997 66
-1.096578 6.898519 -0.309863 101
-1.364552 7.117399 0.360778 79
-1.794650 6.951867 -0.056391 71
-1.095408 6.898641 -0.202431 100
-1.360650 7.103507 0.471517 1
-1.518738 6.761484 -0.601417 100
-1.804476 6.994791 0.054215 90
-0.424015 6.878785 -0.239464 101
-0.846437 6.733981 -0.628413 101
-1.095161 6.925291 -0.095455 101
-1.520672 6.790124 -0.496337 101
-0.426223 6.933608 -0.134596 101
-0.850381 6.774562 -0.526564 101
-1.102834 6.981421 0.012336 101
-1.529737 6.835991 -0.391644 95
-0.865778 6.906624 -0.215100 100
-1.122820 7.115712 0.344761 101
-1.285301 6.745445 -0.715672 101
-1.553594 6.948086 -0.069589 100
-0.869395 6.944950 -0.108730 101
-1.128747 7.161095 0.458641 76
-1.288306 6.767406 -0.611186 101
-1.561197 6.987608 0.039989 91
-0.632580 6.812864 -0.435269 101
-0.879830 7.037909 0.216701 101
-1.305996 6.866615 -0.296622 100
-0.634926 6.850650 -0.331674 101
-0.888030 7.113224 0.329278 78
-1.109921 7.057097 -0.959539 41
-1.313001 6.909783 -0.190319 100
-0.643720 6.958272 -0.014636 100
-1.066017 6.785383 -0.516453 101
-1.331476 7.013439 0.135824 101
-1.756994 6.857215 -0.273175 92
-0.644701 6.981680 0.093008 97
-1.076504 6.859656 -0.414959 100
-1.340925 7.069700 0.247509 73
-1.768577 6.907254 -0.165539 52
-0.843966 6.806840 -0.423117 101
-1.095813 7.005779 0.121297 100
-1.518777 6.835562 -0.283688 101
-0.845484 6.828490 -0.318465 101
-1.101623 7.050696 0.231746 85
-1.261707 6.676578 -0.852353 83
-1.531392 6.897820 -0.177620 101
-0.862910 6.978854 -0.001227 101
-1.121605 7.186511 0.572438 42
-1.287790 6.820894 -0.508526 101
-1.559826 7.031486 0.150869 91
-0.869479 7.041705 0.107744 101
-1.290900 6.843678 -0.402782 101
-1.572664 7.095002 0.263936 79
-0.629660 6.907626 -0.227676 100
-1.047825 6.728634 -0.722942 100
-1.309592 6.949195 -0.082696 101
-0.630190 6.926331 -0.121399 101
-1.053174 6.770479 -0.621160 101
-1.317385 6.997015 0.026096 101
-1.740442 6.835639 -0.380782 100
-1.070651 6.890459 -0.309332 101
-1.334530 7.094636 0.359386 70
-1.493235 6.752790 -0.707372 2
-1.769386 6.954213 -0.056360 67
-1.071321 6.902422 -0.202431 101
-1.342480 7.143519 0.473859 7
-1.496847 6.774527 -0.602109 100
-1.782020 7.008801 0.054275 77
-0.400969 6.876163 -0.239325 101
-0.823618 6.732797 -0.628045 101
-1.070967 6.920979 -0.095346 101
-1.492134 6.767855 -0.494345 101
-0.403692 6.942968 -0.134751 101
-0.829361 6.789221 -0.527486 101
-1.080287 6.988992 0.012343 100
-1.507919 6.844927 -0.391867 82
-0.843354 6.913426 -0.215224 100
-1.097998 7.111499 0.344379 101
-1.259999 6.734028 -0.714014 101
-1.530545 6.953200 -0.069589 100
-0.844909 6.935884 -0.108543 101
-1.104385 7.160853 0.458388 70
-1.266590 6.775557 -0.611539 101
-1.537157 6.988840 0.039966 91
-0.609272 6.806973 -0.434761 101
-0.856969 7.044756 0.216823 101
-1.281750 6.863051 -0.296283 101
-0.612205 6.852718 -0.331674 101
-0.863955 7.112163 0.329095 70
-1.087719 7.068576 -0.960604 38
-1.291547 6.921960 -0.190535 101
-0.620642 6.960369 -0.014636 100
-1.042904 6.784939 -0.516154 101
-1.309677 7.025679 0.135976 101
-1.732287 6.855254 -0.272866 91
-0.622254 6.991747 0.093114 80
-1.054356 6.867135 -0.415198 100
-1.316741 7.070178 0.247371 76
-1.739788 6.889817 -0.164982 51
-0.820433 6.801674 -0.422624 101
-1.072574 7.009375 0.121297 100
-1.494393 6.832752 -0.283364 101
-0.824269 6.843158 -0.319020 101
-1.078236 7.054311 0.231746 78
-1.238111 6.672921 -0.851357 91
-1.506802 6.895047 -0.177418 101
-0.839285 6.977706 -0.001227 101
-1.097165 7.186248 0.572124 49
-1.261529 6.805515 -0.507065 101
-1.533088 7.020992 0.150534 81
-0.846600 7.048521 0.107805 101
-1.269652 6.855773 -0.403244 101
-1.549128 7.100178 0.263936 74
-0.606750 6.909676 -0.227676 100
-1.025506 6.732072 -0.722942 100
-1.286541 6.953500 -0.082696 101
-1.717287 6.834605 -0.489070 11
-0.606869 6.924398 -0.121329 101
-1.028320 6.758181 -0.619716 101
-1.294902 7.005278 0.026111 101
-1.713874 6.825878 -0.379919 100
-1.048396 6.897922 -0.309509 101
-1.310996 7.099022 0.359386 78
-1.462371 6.718823 -0.703302 100
-1.748262 6.967801 -0.056422 59
-1.049026 6.909890 -0.202547 100
-1.322405 7.167558 0.475160 95
-1.472679 6.771665 -0.601417 100
-1.753904 6.995272 0.054125 72
-0.376526 6.869537 -0.239047 101
-0.802930 6.759362 -0.630257 100
-1.046801 6.924675 -0.095346 101
-1.471882 6.788620 -0.495483 101
-0.804718 6.784153 -0.526871 101
-1.054690 6.984810 0.012329 100
-1.482325 6.842342 -0.391420 100
-0.818276 6.908387 -0.214976 100
-1.070784 7.099485 0.343614 101
-1.235049 6.730559 -0.713185 101
-1.505418 6.954591 -0.069550 100
-0.820224 6.934820 -0.108481 101
-1.079382 7.164664 0.458388 70
-1.242931 6.779937 -0.611539 101
-1.511906 6.990254 0.039944 100
-0.585166 6.805080 -0.434507 27
-0.830966 7.035793 0.216457 101
-1.257066 6.863553 -0.296113 101
-0.588280 6.854813 -0.331674 101
-0.837251 7.099262 0.328361 52
-1.063038 7.072330 -0.960604 45
-1.264499 6.910694 -0.190103 100
-0.596683 6.966478 -0.014644 100
-1.018030 6.780649 -0.515554 101
-1.284425 7.026273 0.135900 101
-1.707381 6.857380 -0.272712 100
-1.029787 6.866825 -0.414959 100
-1.291336 7.070798 0.247234 76
-1.718624 6.907490 -0.165261 53
-0.797150 6.808462 -0.422871 101
-1.049283 7.020987 0.121434 98
-1.471374 6.841834 -0.283526 101
-0.799913 6.842024 -0.318835 101
-1.054786 7.065940 0.232006 92
-1.211969 6.661583 -0.849366 91
-1.483565 6.904174 -0.177519 100
-0.815851 6.988539 -0.001228 101
-1.072662 7.193978 0.572438 43
-1.239906 6.821652 -0.507942 101
-1.511089 7.038031 0.150785 100
-0.821064 7.043488 0.107683 101
-1.242860 6.844448 -0.402320 101
-1.519303 7.082091 0.263065 68
-0.582291 6.907768 -0.227545 100
-1.002001 6.735611 -0.722942 100
-1.261547 6.954013 -0.082649 100
-1.687666 6.817317 -0.487408 20
-0.584371 6.946401 -0.121678 101
-1.008236 6.785371 -0.621883 101
-1.271155 7.013691 0.026125 101
-1.688118 6.824064 -0.379488 97
-1.021378 6.881775 -0.308623 100
-1.287631 7.111417 0.359784 79
-1.439742 6.727777 -0.703709 100
-1.721050 6.962212 -0.056328 58
-1.023726 6.905600 -0.202315 100
-1.296667 7.168202 0.474900 100
-1.448200 6.772868 -0.601072 100
-1.723720 6.978053 0.053945 70
-0.352699 6.874804 -0.239186 100
-1.023156 6.932251 -0.095401 101
-1.448126 6.793726 -0.495483 101
-0.780089 6.779001 -0.526256 101
-1.030854 6.992411 0.012336 100
-1.457569 6.843575 -0.391197 88
-0.794600 6.915174 -0.215100 100
-1.044237 7.091323 0.343040 101
-1.210831 6.730916 -0.712770 101
-1.479455 6.951982 -0.069471 101
-0.796475 6.941613 -0.108543 101
-1.053793 7.164438 0.458136 74
-1.217149 6.772468 -0.610479 101
-1.490000 7.007225 0.040011 100
-0.807339 7.046592 0.216701 101
-1.233127 6.867894 -0.296113 101
-0.563412 6.844875 -0.331096 101
-1.042421 7.103447 -0.964331 37
-1.239708 6.911122 -0.189994 100
-0.571445 6.956553 -0.014619 100
-0.993840 6.780205 -0.515254 101
-1.259252 7.026766 0.135824 101
-1.680643 6.851636 -0.272249 100
-1.005317 6.866415 -0.414720 101
-1.264619 7.063442 0.246821 68
-1.690779 6.897891 -0.164889 51
-0.773070 6.807220 -0.422624 101
-1.023182 7.012713 0.121229 91
-1.448450 6.850809 -0.283688 101
-0.777086 6.852697 -0.319205 101
-1.030281 7.069554 0.232006 83
-1.193743 6.693096 -0.852851 94
-1.459618 6.909276 -0.177519 101
-0.791635 6.991324 -0.001228 101
-1.049456 7.209490 0.573379 11
-1.215566 6.821979 -0.507650 101
-1.485046 7.035398 0.150618 100
-0.795779 7.038340 0.107562 101
-1.219160 6.848709 -0.402320 101
-1.491479 7.071663 0.262485 74
-0.558717 6.913725 -0.227676 100
-0.978126 6.735100 -0.722520 100
-1.235386 6.946521 -0.082509 100
-1.664077 6.823114 -0.487408 82
-0.558753 6.928447 -0.121329 101
-0.980205 6.757276 -0.618994 101
-1.241310 6.986536 0.026008 101
-1.664524 6.829857 -0.379488 99
-0.997608 6.885262 -0.308623 100
-1.259575 7.096154 0.358789 70
-1.420598 6.752179 -0.705744 100
-1.697945 6.972000 -0.056360 58
-0.997030 6.889306 -0.201736 100
-1.269139 7.156913 0.473859 100
-1.424003 6.773924 -0.600726 100
-1.695850 6.968413 0.053825 75
-0.997812 6.927864 -0.095292 101
-1.422767 6.790930 -0.494914 101
-1.702986 7.018457 0.165154 36
-0.756421 6.781682 -0.526256 101
-1.004731 6.984089 0.012315 98
-1.431216 6.836895 -0.390527 100
-0.768244 6.898038 -0.214482 100
-1.019478 7.094925 0.343040 101
-1.187328 6.735101 -0.712770 101
-1.456817 6.964934 -0.069550 100
-0.771797 6.940376 -0.108481 101
-1.029912 7.175975 0.458641 80
-1.194193 6.780600 -0.610833 101
-1.462258 6.996722 0.039922 96
-0.781855 7.041420 0.216457 101
-1.207761 6.864285 -0.295774 101
-1.484487 7.108957 0.375517 1
-0.539515 6.846800 -0.331096 101
-1.026048 7.165908 -0.972318 34
-1.214192 6.907531 -0.189778 100
-0.547473 6.962493 -0.014627 100
-0.969037 6.775736 -0.514654 101
-1.231258 7.011424 0.135443 101
-1.655777 6.853576 -0.272095 100
-0.981342 6.869882 -0.414720 100
-1.243410 7.087501 0.247509 76
-1.664813 6.895976 -0.164704 53
-0.749303 6.809877 -0.422624 101
-0.998697 7.016242 0.121229 100
-1.424528 6.855823 -0.283688 101
-0.752288 6.847425 -0.318835 101
-1.003346 7.057275 0.231486 76
-1.165590 6.669854 -0.849366 92
-1.433053 6.902584 -0.177217 100
-0.766790 6.990068 -0.001227 101
-1.189001 6.810461 -0.506481 101
-1.460479 7.040538 0.150618 100
-0.771206 7.041074 0.107562 101
-1.193188 6.841121 -0.401627 101
-1.466785 7.076826 0.262485 64
-0.533348 6.899690 -0.227151 100
-0.954610 6.738473 -0.722520 100
-1.210444 6.946850 -0.082462 101
-1.634658 6.805601 -0.485747 89
-0.534257 6.926368 -0.121259 101
-0.957728 6.768545 -0.619716 101
-1.220345 7.010530 0.026081 101
-1.637877 6.823974 -0.378841 98
-0.974127 6.892659 -0.308800 101
-1.236851 7.112315 0.359386 61
-1.396214 6.753200 -0.705337 100
-1.671732 6.970105 -0.056297 63
-0.972976 6.892744 -0.201736 100
-1.240733 7.141636 0.472558 100
-1.397124 6.763243 -0.599342 100
-1.670583 6.970400 0.053795 91
-0.974736 6.939226 -0.095401 101
-1.399053 6.795855 -0.494914 101
-1.679406 7.028248 0.165245 56
-0.732744 6.784282 -0.526256 101
-0.980901 6.991515 0.012322 100
-1.408147 6.845760 -0.390751 94
-0.746304 6.920553 -0.215100 100
-0.995260 7.102397 0.343231 101
-1.163811 6.739204 -0.712770 101
-1.430080 6.958223 -0.069432 100
-0.746282 6.931098 -0.108295 101
-1.002644 7.163713 0.457631 77
-1.167807 6.769022 -0.609419 101
-1.438630 7.005702 0.039944 100
-0.758125 7.052057 0.216701 101
-1.184471 6.872397 -0.295944 101
-1.462875 7.129748 0.376343 15
-0.516512 6.860594 -0.331674 94
-1.190751 6.915668 -0.189886 101
-0.523465 6.968351 -0.014636 100
-0.947033 6.790928 -0.515554 101
-1.206776 7.015678 0.135443 101
-1.634619 6.870979 -0.272558 100
-0.957907 6.877220 -0.414959 101
-1.217985 7.087858 0.247371 71
-1.371225 6.699953 -0.821535 26
-1.640732 6.901745 -0.164704 54
-0.725951 6.816422 -0.422871 101
-0.974749 7.023647 0.121297 94
-1.399788 6.856838 -0.283526 101
-0.726269 6.830142 -0.317910 101
-0.979255 7.064695 0.231616 79
-1.142970 6.677794 -0.849863 94
-1.403355 6.880117 -0.176514 101
-0.741118 6.980770 -0.001225 101
-1.161186 6.790977 -0.504727 101
-1.433498 7.033838 0.150367 100
-0.746202 7.039746 0.107501 101
-1.169300 6.845244 -0.401627 101
-1.441276 7.077986 0.262339 56
-0.509554 6.905497 -0.227282 100
-0.929450 6.729944 -0.721253 78
-1.184169 6.939205 -0.082322 100
-1.599871 6.764666 -0.482423 87
-0.510077 6.928190 -0.121259 101
-0.932463 6.760008 -0.618632 101
-1.194522 7.006861 0.026052 101
-1.609454 6.810214 -0.377763 100
-0.948425 6.884141 -0.308268 101
-1.211346 7.112651 0.359187 64
-1.366296 6.726836 -0.702081 100
-1.647391 6.975898 -0.056297 65
-0.950000 6.904020 -0.201968 100
-1.214457 7.138053 0.472038 100
-1.370337 6.752457 -0.597959 100
-1.648998 6.987868 0.053885 89
-0.949473 6.934654 -0.095292 101
-1.373791 6.792866 -0.494345 101
-1.651251 7.018485 0.164879 67
-0.710747 6.802661 -0.527486 68
-0.955980 6.990929 0.012315 100
-1.381109 6.834969 -0.389857 100
-0.720910 6.911185 -0.214729 100
-0.971015 7.109785 0.343422 101
-1.137638 6.727533 -0.711111 101
-1.405004 6.959249 -0.069393 100
-0.722076 6.933661 -0.108295 101
-0.977624 7.167170 0.457631 75
-1.145492 6.780915 -0.610126 101
-1.410205 6.991077 0.039832 89
-0.731410 7.034780 0.216091 101
-1.159783 6.872554 -0.295774 101
-1.437951 7.134817 0.376343 37
-0.493087 6.870329 -0.332059 100
-1.166558 6.919789 -0.189886 101
-1.591679 6.790898 -0.591832 48
-0.498215 6.958171 -0.014610 27
-0.921109 6.778392 -0.514354 101
-1.182213 7.019859 0.135443 101
-1.604179 6.849417 -0.271478 89
-0.931663 6.864707 -0.414004 100
-1.191159 7.080255 0.246959 83
-1.346182 6.696928 -0.820581 70
-1.616545 6.907450 -0.164704 52
-0.701603 6.814957 -0.422624 101
-0.947937 7.011173 0.121024 97
-1.374918 6.857792 -0.283364 101
-0.702671 6.836627 -0.318095 101
-0.952282 7.052245 0.231097 80
-1.118841 6.677855 -0.849366 92
-1.381525 6.896769 -0.176815 100
-0.715746 6.975375 -0.001224 101
-1.140589 6.814691 -0.506188 101
-1.409537 7.042757 0.150450 88
-0.721012 7.038350 0.107440 101
-1.143224 6.837502 -0.400935 101
-1.415571 7.079095 0.262194 56
-0.484946 6.903261 -0.227151 100
-1.159059 6.939388 -0.082275 100
-1.578746 6.781919 -0.483254 93
-0.486208 6.937925 -0.121399 101
-0.910747 6.779046 -0.620077 101
-1.168496 7.003138 0.026023 101
-1.587245 6.823627 -0.378194 94
-0.925725 6.899326 -0.308800 100
-1.185587 7.112940 0.358988 70
-1.342554 6.731614 -0.702081 88
-1.621863 6.977771 -0.056265 63
-0.924554 6.899405 -0.201736 101
-1.189901 7.146235 0.472298 100
-1.345707 6.753345 -0.597613 100
-1.618884 6.970270 0.053705 76
-0.924732 6.933961 -0.095238 101
-1.190590 7.178318 0.586722 52
-1.350071 6.797620 -0.494345 101
-1.633959 7.055373 0.165611 60
-0.684994 6.785261 -0.525948 57
-0.928403 6.970433 0.012273 100
-1.356465 6.835831 -0.389634 100
-0.696781 6.913660 -0.214729 100
-0.944084 7.097289 0.342658 101
-1.114148 6.731463 -0.711111 101
-1.381480 6.968035 -0.069432 101
-0.698669 6.944098 -0.108419 101
-0.952074 7.166582 0.457378 70
-1.121815 6.784873 -0.610126 101
-1.385016 6.992033 0.039810 98
-0.707249 7.041268 0.216213 25
-1.133833 6.864731 -0.295265 101
-1.409935 7.124118 0.375517 34
-0.467469 6.848092 -0.330904 44
-1.139141 6.904093 -0.189345 100
-1.565277 6.784761 -0.590817 101
-0.896919 6.777612 -0.514054 101
-1.157702 7.023943 0.135443 101
-1.579363 6.851079 -0.271324 94
-0.907171 6.863959 -0.413766 101
-1.163190 7.064647 0.246271 75
-1.321259 6.693793 -0.819627 93
-1.589731 6.901361 -0.164425 53
-0.676625 6.805446 -0.421886 101
-0.923980 7.018404 0.121092 100
-1.350971 6.862549 -0.283364 101
-0.679592 6.846991 -0.318465 101
-0.929223 7.067417 0.231486 88
-1.096166 6.685637 -0.849863 94
-1.356671 6.897625 -0.176715 100
-0.691787 6.981811 -0.001225 101
-1.116149 6.814694 -0.505896 101
-1.383402 7.039786 0.150283 100
-0.696045 7.036844 0.107380 101
-1.122574 6.861155 -0.402089 101
-1.393932 7.099683 0.262775 58
-0.460580 6.900922 -0.227020 100
-1.133539 6.935497 -0.082181 100
-1.559519 6.806837 -0.484639 100
-0.460925 6.923617 -0.121120 101
-0.887078 6.782184 -0.620077 101
-1.143399 7.003226 0.026008 101
-1.565199 6.836912 -0.378625 88
-0.901636 6.902515 -0.308800 101
-1.159465 7.109149 0.358591 64
-1.316754 6.724545 -0.700860 100
-1.595713 6.975592 -0.056203 59
-0.900465 6.902591 -0.201736 100
-1.165591 7.154284 0.472558 100
-1.322890 6.761913 -0.597959 100
-1.595435 6.979778 0.053735 83
-0.900008 6.933180 -0.095183 100
-1.164248 7.174559 0.586079 70
-1.327862 6.810123 -0.494914 101
-1.605767 7.045437 0.165245 51
-0.663238 6.807457 -0.527486 31
-0.906123 6.989499 0.012301 100
-1.332595 6.840525 -0.389634 100
-0.671483 6.904112 -0.214359 101
-0.918278 7.092617 0.342275 101
-1.088736 6.723529 -0.709867 101
-1.354857 6.961036 -0.069315 100
-0.672879 6.930572 -0.108170 101
-1.096852 6.780880 -0.609419 101
-1.362128 7.004678 0.039855 100
-1.110501 6.872592 -0.295435 101
-1.383534 7.121153 0.375104 38
-1.114397 6.904080 -0.189237 100
-1.530112 6.739656 -0.586421 101
-0.871727 6.768833 -0.513154 101
-1.131904 7.020045 0.135291 101
-1.553670 6.848755 -0.271015 100
-0.884225 6.875004 -0.414243 100
-1.141066 7.084451 0.246821 68
-1.298641 6.702264 -0.820104 100
-1.564747 6.902967 -0.164332 51
-0.652865 6.807766 -0.421886 101
-0.897951 7.009686 0.120887 99
-1.323975 6.851527 -0.282716 101
-0.655687 6.849321 -0.318465 101
-0.903026 7.058721 0.231097 84
-1.074708 6.701179 -0.851357 60
-1.334859 6.914098 -0.177016 100
-0.667412 6.984183 -0.001225 101
-1.089830 6.802793 -0.504727 101
-1.357305 7.036719 0.150115 100
-0.671098 7.035249 0.107319 101
-1.096724 6.853202 -0.401396 101
-1.364602 7.080955 0.261904 64
-0.436236 6.898498 -0.226888 100
-1.109323 6.939412 -0.082181 101
-1.533117 6.800561 -0.483808 101
-0.436502 6.921193 -0.121050 101
-0.861890 6.773384 -0.618994 101
-1.116423 6.991375 0.025949 101
-1.539569 6.834541 -0.378194 94
-0.875521 6.889764 -0.308091 100
-1.132125 7.097372 0.357795 64
-1.293273 6.729100 -0.700860 88
-1.568719 6.969412 -0.056108 60
-0.875358 6.897759 -0.201504 100
-1.141239 7.162251 0.472818 100
-1.298527 6.762576 -0.597613 100
-1.570183 6.981402 0.053705 74
-0.876822 6.944214 -0.095292 100
-1.139217 7.178576 0.586079 81
-1.300351 6.795120 -0.493491 101
-1.577683 7.035388 0.164879 61
-0.879229 6.972775 0.012266 100
-1.309471 6.849055 -0.389857 93
-1.583618 7.067457 0.276971 5
-0.648503 6.918355 -0.214729 101
-0.894518 7.103707 0.342658 101
-1.067753 6.743006 -0.711526 101
-1.331305 6.969651 -0.069354 101
-0.648308 6.928897 -0.108108 101
-1.071306 6.772862 -0.608358 101
-1.336166 7.001533 0.039810 89
-1.084624 6.864586 -0.294926 101
-1.357162 7.118093 0.374691 30
-1.091521 6.915830 -0.189453 100
-1.503086 6.729400 -0.585068 101
-0.849062 6.779753 -0.513754 101
-1.105500 7.012106 0.135063 101
-1.529730 6.854142 -0.271015 99
-0.859695 6.874091 -0.414004 101
-1.113188 7.068651 0.246134 71
-1.272240 6.691155 -0.818195 96
-1.536259 6.888879 -0.163868 52
-0.627945 6.798082 -0.421147 101
-0.873424 7.012784 0.120887 93
-1.300743 6.860043 -0.282878 101
-0.630616 6.839637 -0.317910 101
-0.878814 7.065805 0.231227 89
-1.107811 7.065629 -0.897161 42
-1.309169 6.910869 -0.176815 100
-0.642229 6.978510 -0.001223 101
-1.066630 6.810507 -0.505019 101
-1.331923 7.037497 0.150031 100
-0.646828 7.041539 0.107380 101
-1.071488 6.849110 -0.400935 101
-1.337574 7.073906 0.261468 66
-0.412312 6.903975 -0.227020 100
-1.083160 6.931399 -0.082041 100
-1.509290 6.805889 -0.483808 101
-0.413679 6.946633 -0.121469 79
-0.836689 6.764501 -0.617910 101
-1.093158 7.003148 0.025979 101
-1.513888 6.832094 -0.377763 99
-0.850883 6.888824 -0.307913 101
-1.107247 7.101296 0.357795 64
-1.270422 6.737501 -0.701267 99
-1.545151 6.978772 -0.056140 55
-0.851664 6.904753 -0.201620 100
-1.114897 7.158319 0.472298 100
-1.274814 6.767086 -0.597613 100
-1.544838 6.982958 0.053675 69
-0.851602 6.939292 -0.095183 101
-1.114152 7.182509 0.586079 75
-1.278096 6.807460 -0.494061 101
-1.552254 7.036947 0.164788 61
-0.856830 6.991683 0.012294 98
-1.286291 6.857510 -0.390081 94
-1.565821 7.104168 0.278194 85
-0.623271 6.908631 -0.214359 100
-0.868745 7.098854 0.342275 101
-1.042384 6.734897 -0.710282 101
-1.304758 6.962461 -0.069237 100
-0.624476 6.935101 -0.108170 101
-1.046440 6.768685 -0.607651 101
-1.311718 7.006154 0.039810 100
-1.060655 6.868330 -0.294926 101
-1.333042 7.126714 0.374897 33
-1.478622 6.724785 -0.690898 58
-1.067983 6.923550 -0.189562 101
-1.335753 7.147901 0.488081 4
-1.486428 6.765749 -0.587774 101
-0.825873 6.786635 -0.514054 101
-1.082234 7.023828 0.135215 101
-1.506652 6.863344 -0.271169 100
-0.834731 6.869123 -0.413527 101
-1.087291 7.064592 0.245859 71
-1.248876 6.695556 -0.818195 88
-1.513060 6.898106 -0.163961 54
-0.605978 6.820117 -0.422378 101
-0.849901 7.023731 0.121024 100
-1.276059 6.860612 -0.282716 101
-0.605678 6.829856 -0.317355 101
-0.853664 7.064860 0.231097 82
-1.084944 7.081223 -0.898655 25
-1.284307 6.911465 -0.176715 100
-0.617160 6.972741 -0.001222 101
-1.040436 6.798415 -0.503850 101
-1.305890 7.034240 0.149864 100
-0.619428 7.011881 0.106894 75
-1.046367 6.844913 -0.400473 101
-1.314331 7.086392 0.261759 59
-0.388210 6.905372 -0.227020 100
-1.060166 6.943045 -0.082135 101
-1.487224 6.818913 -0.484362 101
-0.814972 6.783201 -0.619355 101
-1.070515 7.018784 0.026023 101
-1.492582 6.849044 -0.378410 100
-0.827307 6.895720 -0.308091 101
-1.080647 7.093269 0.357198 64
-1.244725 6.730156 -0.700046 95
-1.520781 6.984123 -0.056140 62
-0.826605 6.899744 -0.201388 101
-1.088702 7.154275 0.471777 100
-1.251185 6.771494 -0.597613 101
-1.521304 6.992216 0.053705 90
-0.827164 6.930164 -0.095020 100
-1.087935 7.170397 0.584793 75
-1.253345 6.799890 -0.493207 101
-1.525516 7.026424 0.164422 67
-0.832220 6.982570 0.012273 100
-1.258481 6.834243 -0.388518 100
-1.537170 7.085885 0.277276 66
-0.600704 6.914643 -0.214482 100
-0.843311 7.085826 0.341510 100
-1.017662 6.722582 -0.708623 101
-1.278044 6.947081 -0.069041 100
-0.601130 6.933149 -0.108108 101
-1.022202 6.760299 -0.606591 101
-1.287755 7.006531 0.039788 95
-1.038470 6.875762 -0.295096 101
-1.309401 7.131095 0.374897 27
-1.456314 6.729651 -0.690898 100
-1.044421 6.923100 -0.189453 101
-1.320683 7.199397 0.491295 85
-1.465669 6.778432 -0.588450 101
-0.803363 6.789337 -0.514054 101
-1.060128 7.035287 0.135367 101
-1.485573 6.876116 -0.271478 100
-0.811948 6.871853 -0.413527 101
-1.064453 7.072112 0.245996 73
-1.226666 6.699660 -0.818195 99
-1.489333 6.899177 -0.163868 53
-0.583018 6.818110 -0.422132 101
-0.825203 7.014595 0.120818 87
-1.253301 6.864806 -0.282716 101
-0.583026 6.831827 -0.317355 101
-0.829299 7.059711 0.230837 91
-1.061456 7.084782 -0.898655 26
-1.259946 6.907818 -0.176514 101
-0.594713 6.982720 -0.001223 101
-1.019067 6.809718 -0.504435 101
-1.283273 7.042466 0.149948 100
-1.024843 6.856244 -0.400935 101
-1.290825 7.090712 0.261759 66
-0.364886 6.898636 -0.226757 100
-1.035364 6.934655 -0.081994 100
-1.462929 6.816004 -0.483808 101
-0.794784 6.805650 -0.621160 57
-1.046054 7.014382 0.025993 101
-1.469024 6.850050 -0.378194 91
-0.802584 6.882548 -0.307382 101
-1.056530 7.092862 0.356999 66
-1.223821 6.742077 -0.700860 100
-1.495936 6.981306 -0.056077 60
-0.804645 6.910390 -0.201620 100
-1.063797 7.149950 0.471257 100
-1.224457 6.752080 -0.595538 100
-1.496433 6.989400 0.053645 87
-0.804297 6.944934 -0.095183 100
-1.062846 7.174159 0.584793 64
-1.229551 6.804232 -0.493207 101
-1.501763 7.035628 0.164514 60
-0.808729 6.993383 0.012287 100
-1.235296 6.842530 -0.388741 100
-1.514061 7.099032 0.277582 59
