# This PCD file was generated using the MATLAB® pcwrite function
# from Computer Vision Toolbox®.
# .PCD v.7 - Point Cloud Data file format
VERSION .7
FIELDS x y z intensity
SIZE 4 4 4 1
TYPE F F F U
COUNT 1 1 1 1
WIDTH 1135
HEIGHT 1
VIEWPOINT 0 0 0 1 0 0 0
POINTS 1135
DATA ascii
-3.908306 14.221393 -0.314091 23
-3.854070 14.208678 -0.539835 43
-3.862825 14.250387 -0.314432 55
-3.839841 14.268341 -0.769205 0
-3.794883 14.187364 -0.538516 94
-3.814824 14.271591 -0.314602 58
-3.780164 14.224825 -0.993086 1
-3.781226 14.238527 -0.766918 74
-3.749855 14.207600 -0.538809 97
-3.757278 14.245495 -0.313750 66
-3.734534 14.253376 -0.994163 70
-3.732513 14.255505 -0.767126 64
-3.699493 14.207870 -1.217368 54
-3.706278 14.243814 -0.539689 100
-3.706523 14.254653 -0.313665 79
-3.670751 14.212236 -0.990394 100
-3.686743 14.283913 -0.767957 76
-3.647358 14.208998 -1.216377 76
-3.658039 14.260405 -0.539835 101
-3.657308 14.267359 -0.313665 96
-3.621119 14.224963 -0.990394 92
-3.632921 14.281209 -0.767126 81
-3.595782 14.213913 -1.215715 96
-3.605300 14.261461 -0.539395 101
-3.608463 14.283916 -0.313750 100
-3.573384 14.245258 -0.990932 95
-3.577221 14.270555 -0.765878 83
-3.547413 14.221447 -1.442317 11
-3.545180 14.222510 -1.215385 99
-3.556462 14.277838 -0.539542 101
-3.556649 14.288664 -0.313580 100
-3.505635 14.174459 -1.663634 21
-3.523662 14.257639 -0.990932 100
-3.523539 14.267447 -0.765046 83
-3.493656 14.218352 -1.440750 12
-3.497079 14.242623 -1.216046 100
-3.505274 14.286375 -0.539395 101
-3.506334 14.301093 -0.313580 100
-3.447669 14.151856 -1.659559 20
-3.471040 14.258219 -0.990124 101
-3.473715 14.279659 -0.765046 83
-3.444940 14.234330 -1.441142 11
-3.445468 14.246995 -1.215385 100
-3.455384 14.298524 -0.539395 101
-3.455454 14.309359 -0.313495 99
-3.887898 14.204651 -0.511709 0
-3.414939 14.233368 -1.667710 17
-3.905061 14.276788 -0.286782 86
-3.423110 14.278009 -0.990663 101
-3.421988 14.283928 -0.764630 83
-3.400769 14.269503 -1.443493 22
-3.396639 14.262813 -1.215715 100
-3.407302 14.318275 -0.539689 101
-3.407334 14.329114 -0.313665 100
-3.838620 14.209764 -0.511431 51
-3.421628 14.472816 -1.694426 29
-3.842019 14.231754 -0.285620 83
-3.371139 14.269867 -0.989316 101
-3.373693 14.291307 -0.764422 83
-3.367271 14.338787 -1.449368 20
-3.347717 14.266186 -1.215054 100
-3.358219 14.321655 -0.539395 101
-3.359154 14.336378 -0.313580 100
-3.794897 14.207442 -0.737231 66
-3.784879 14.207626 -0.510875 75
-3.368385 14.473060 -1.693067 31
-3.794376 14.252809 -0.285775 74
-3.321307 14.281547 -0.989316 101
-3.323787 14.302997 -0.764422 83
-3.329751 14.404753 -1.454852 31
-3.298795 14.281669 -1.215385 100
-3.308207 14.333291 -0.539395 101
-3.308192 14.344119 -0.313495 100
-3.757543 14.257528 -0.966397 73
-3.755455 14.259235 -0.739234 101
-3.740340 14.240084 -0.511570 92
-3.322280 14.504099 -1.695331 33
-3.745616 14.269835 -0.285852 83
-3.274107 14.304725 -0.990124 101
-3.275621 14.322300 -0.764838 83
-3.279394 14.349786 -0.087350 3
-3.709803 14.191087 -1.187888 62
-3.295342 14.486156 -1.461903 26
-3.248039 14.289209 -1.215054 100
-3.259039 14.348649 -0.539542 101
-3.259871 14.363379 -0.313665 100
-3.699723 14.239653 -0.964304 65
-3.695619 14.233589 -0.737231 100
-3.689676 14.249166 -0.511431 100
-3.695824 14.282811 -0.285852 92
-3.221539 14.304382 -0.989316 101
-3.222966 14.321958 -0.764214 83
-3.238024 14.400178 -0.087587 69
-3.661128 14.207839 -1.188211 101
-3.231523 14.439344 -1.456028 19
-3.195315 14.288837 -1.214063 100
-3.204332 14.340487 -0.538809 101
-3.207703 14.366925 -0.313495 100
-3.649651 14.252568 -0.964304 68
-3.641581 14.231016 -0.736430 83
-3.637937 14.254211 -0.511153 101
-3.641004 14.276250 -0.285465 100
-3.171588 14.315540 -0.989316 101
-3.174680 14.340920 -0.764630 83
-3.181691 14.384054 -0.087421 101
-3.609962 14.204420 -1.413791 6
-3.604641 14.193482 -1.185950 101
-3.146275 14.303798 -1.214393 100
-3.158546 14.371105 -0.539542 101
-3.159249 14.385847 -0.313665 100
-3.607691 14.296182 -0.966397 64
-3.590907 14.239767 -0.736229 98
-3.587183 14.262946 -0.511014 101
-3.589199 14.281115 -0.285310 101
-3.119899 14.318726 -0.988778 101
-3.123752 14.348012 -0.764422 83
-3.134012 14.406798 -0.087492 101
-3.557978 14.217582 -1.186919 101
-3.097169 14.318589 -1.214724 100
-3.104140 14.362508 -0.538809 101
-3.107325 14.388968 -0.313495 100
-3.539887 14.226562 -1.641831 27
-3.549098 14.273827 -0.964042 63
-3.543105 14.259970 -0.736630 101
-3.537874 14.267020 -0.510736 101
-3.543703 14.300713 -0.285465 101
-3.075730 14.344604 -0.989855 101
-3.076165 14.358290 -0.764422 83
-3.091280 14.440573 -0.087635 101
-3.514234 14.232507 -1.414175 13
-3.516654 14.252500 -1.188856 101
-3.049886 14.328734 -1.214724 100
-3.058401 14.380490 -0.539102 101
-3.059862 14.399137 -0.313495 100
-3.477854 14.176374 -1.634708 31
-3.502089 14.285433 -0.964042 81
-3.501871 14.294831 -0.737832 101
-3.491846 14.294816 -0.511292 101
-3.493762 14.312995 -0.285465 101
-3.023993 14.347444 -0.989316 101
-3.026850 14.372849 -0.764630 83
-3.037560 14.435618 -0.087540 101
-3.464532 14.244687 -1.414175 19
-3.468765 14.272437 -1.189502 101
-3.000667 14.343196 -1.215054 100
-3.009820 14.398904 -0.539395 101
-3.009581 14.409730 -0.313495 100
-3.432083 14.203884 -1.636489 30
-3.919011 14.227880 -0.257598 66
-3.450329 14.289811 -0.963519 76
-3.447266 14.287550 -0.736830 101
-3.438186 14.291371 -0.510736 101
-3.442845 14.321215 -0.285387 101
-2.976321 14.369636 -0.990124 101
-2.976660 14.383327 -0.764630 83
-2.982292 14.422631 -0.087397 101
-3.411078 14.241206 -1.412639 16
-3.414284 14.265071 -1.187888 101
-2.948976 14.345773 -1.214393 100
-2.958736 14.405407 -0.539249 101
-2.959263 14.420148 -0.313495 99
-3.863905 14.212186 -0.483434 30
-3.446892 14.486481 -1.667652 35
-3.864080 14.222177 -0.257248 98
-3.398580 14.294002 -0.962996 100
-3.395526 14.291723 -0.736430 101
-3.389230 14.307168 -0.510875 101
-3.391931 14.329249 -0.285310 101
-2.923763 14.368204 -0.989316 101
-2.927227 14.397545 -0.764838 83
-2.933506 14.440796 -0.087445 101
-3.835243 14.218734 -0.709960 1
-3.376844 14.318913 -1.419168 34
-3.362590 14.269153 -1.187242 101
-2.897209 14.348184 -1.213732 100
-2.908327 14.415668 -0.539249 101
-2.909581 14.434334 -0.313580 100
-3.813108 14.221760 -0.483302 62
-3.393441 14.486847 -1.666316 44
-3.801851 14.189259 -0.256411 72
-3.348512 14.305813 -0.962996 96
-3.344544 14.299637 -0.736229 101
-3.338361 14.315019 -0.510736 101
-3.345522 14.356582 -0.285620 101
-2.875155 14.386149 -0.989855 101
-2.875388 14.399841 -0.764422 83
-2.883080 14.450948 -0.087445 101
-3.791903 14.246190 -0.937834 1
-3.785587 14.232035 -0.709960 86
-3.339446 14.384912 -1.424545 21
-3.310058 14.269152 -1.186273 101
-2.845556 14.350389 -1.213071 100
-2.858766 14.429654 -0.539395 101
-2.858401 14.440479 -0.313495 97
-3.765486 14.242713 -0.483565 71
-3.346425 14.514098 -1.668097 43
-3.755363 14.214043 -0.256620 73
-3.299451 14.321303 -0.963257 90
-3.294609 14.311224 -0.736229 101
-3.291054 14.338273 -0.511153 101
-3.294494 14.364274 -0.285542 101
-2.824921 14.396097 -0.989855 101
-2.825105 14.409790 -0.764422 83
-2.834926 14.472700 -0.087516 101
-3.736072 14.236172 -0.936310 74
-3.733858 14.237433 -0.709575 99
-3.303402 14.458584 -1.430690 42
-3.261117 14.284506 -1.186596 101
-2.800017 14.383712 -1.215054 99
-2.806853 14.431697 -0.539102 101
-2.807977 14.450369 -0.313495 96
-3.710575 14.226184 -1.162247 72
-3.713730 14.248034 -0.483302 86
-3.710764 14.246416 -0.256969 99
-3.247675 14.324948 -0.962734 97
-3.245516 14.326533 -0.736430 101
-3.239261 14.341866 -0.510875 101
-3.242596 14.367879 -0.285387 101
-2.772397 14.394113 -0.989047 101
-2.775538 14.423488 -0.764630 83
-2.782104 14.470727 -0.087445 101
-3.684336 14.241403 -0.935802 78
-3.674103 14.211707 -0.707649 68
-3.243257 14.427308 -1.426465 33
-3.212919 14.303596 -1.187242 101
-2.746678 14.377759 -1.213732 33
-2.755574 14.437507 -0.538956 101
-3.668183 14.258072 -1.391674 64
-2.758117 14.464040 -0.313580 100
-3.661738 14.242950 -1.162562 94
-3.664804 14.264824 -0.483434 100
-3.664813 14.274823 -0.257248 100
-3.195721 14.328449 -0.962211 100
-3.195280 14.337821 -0.736430 101
-3.189179 14.353086 -0.510875 101
-3.190689 14.371302 -0.285232 101
-2.722135 14.403702 -0.989047 101
-2.724433 14.429163 -0.764422 83
-3.623752 14.211627 -0.933009 79
-3.627432 14.236060 -0.708226 81
-3.163831 14.318618 -1.187565 101
-3.178107 14.417761 -0.059266 9
-2.707368 14.458824 -0.539395 101
-3.608603 14.232188 -1.387909 66
-2.712759 14.501096 -0.314176 13
-3.607102 14.236319 -1.160986 100
-3.614006 14.273654 -0.483302 100
-3.613000 14.279775 -0.257109 101
-3.144831 14.335618 -0.961949 100
-3.143501 14.341083 -0.736029 101
-3.138204 14.360226 -0.510736 101
-3.142211 14.390166 -0.285387 101
-2.672567 14.417041 -0.989316 101
-2.673321 14.434657 -0.764214 83
-3.574122 14.224189 -0.933009 77
-3.585501 14.279636 -0.709767 100
-3.111290 14.317886 -1.186596 101
-3.126065 14.420948 -0.059234 86
-2.660491 14.487844 -0.540128 14
-3.549249 14.206063 -1.384145 50
-3.551590 14.225610 -1.159095 92
-3.565128 14.290061 -0.483434 100
-3.563132 14.292299 -0.257109 101
-3.097296 14.358213 -0.962734 97
-3.096789 14.367590 -0.736830 101
-3.093020 14.382293 -0.511153 101
-3.095272 14.404427 -0.285465 101
-2.626157 14.433680 -0.989855 101
-2.626164 14.447371 -0.764422 83
-3.537257 14.267307 -1.617620 17
-3.533689 14.263078 -0.934786 88
-3.530508 14.260406 -0.708226 101
-3.062239 14.320303 -1.185950 101
-3.075915 14.419458 -0.059186 101
-3.510933 14.252496 -1.387533 36
-3.506569 14.244987 -1.159725 98
-3.516104 14.293969 -0.483171 100
-3.518900 14.315609 -0.257318 101
-3.049183 14.364428 -0.962472 99
-3.046184 14.362069 -0.736029 101
-3.040317 14.381269 -0.510736 101
-3.044972 14.415143 -0.285465 101
-2.575057 14.438829 -0.989586 101
-3.469510 14.206181 -1.609307 23
-3.484826 14.279204 -0.935040 100
-3.483548 14.284288 -0.708804 101
-3.010593 14.323102 -1.185305 101
-3.027205 14.437937 -0.059218 100
-3.466795 14.287884 -1.389792 12
-3.455884 14.253265 -1.159410 100
-3.466187 14.306155 -0.483171 100
-3.468908 14.327806 -0.257318 101
-2.999023 14.374984 -0.962472 96
-2.999294 14.388258 -0.736830 101
-2.991725 14.399622 -0.511014 101
-2.994636 14.425684 -0.285465 101
-3.904438 14.218623 -0.455651 1
-3.413391 14.191145 -1.606244 23
-3.907698 14.239772 -0.229388 47
-3.432163 14.279637 -0.934278 100
-3.430866 14.284706 -0.708226 101
-2.964610 14.353045 -1.186919 101
-2.976788 14.448416 -0.059218 100
-3.413198 14.284406 -1.388286 8
-3.407036 14.269120 -1.159725 101
-3.417156 14.322056 -0.483302 100
-3.415164 14.324265 -0.257039 101
-2.947224 14.377544 -0.961949 100
-2.947448 14.390813 -0.736430 101
-2.939912 14.402129 -0.510736 101
-2.945104 14.439960 -0.285542 101
-3.851663 14.220584 -0.455280 51
-3.417888 14.431245 -1.632059 20
-3.850643 14.226304 -0.228954 57
-3.384099 14.299309 -0.934786 101
-3.382760 14.304386 -0.708612 101
-2.911999 14.351608 -1.185950 101
-2.922176 14.439156 -0.059138 100
-3.817471 14.179386 -0.679651 34
-3.375841 14.350560 -1.393556 18
-3.355115 14.273226 -1.159095 101
-3.366848 14.333966 -0.483302 100
-3.365736 14.340068 -0.257109 101
-2.896672 14.387815 -0.961949 100
-2.897612 14.405005 -0.736630 101
-2.891193 14.420143 -0.511014 101
-2.893896 14.446231 -0.285465 101
-3.799937 14.226217 -0.455033 65
-3.375618 14.477937 -1.635997 24
-3.799929 14.235794 -0.228891 77
-3.334165 14.311034 -0.934786 101
-3.331902 14.312216 -0.708419 101
-2.860327 14.353865 -1.185305 101
-2.870977 14.445345 -0.059122 101
-3.781566 14.234249 -0.908544 20
-3.773079 14.211935 -0.680575 78
-3.331118 14.385533 -1.395815 17
-3.306170 14.288735 -1.159410 101
-3.316793 14.345631 -0.483302 100
-3.317460 14.359523 -0.257248 101
-2.847980 14.405669 -0.962472 100
-2.846537 14.411113 -0.736430 101
-2.840840 14.430147 -0.511014 101
-2.844995 14.464092 -0.285620 101
-3.746182 14.223929 -0.454539 66
-3.332174 14.520634 -1.639498 24
-3.745124 14.229632 -0.228581 65
-3.284190 14.322585 -0.934786 100
-3.283707 14.331548 -0.708804 101
-2.814798 14.387239 -1.187242 101
-2.819004 14.447426 -0.059090 101
-3.726799 14.228051 -0.907313 83
-3.725471 14.232750 -0.680945 85
-3.284422 14.412604 -1.397320 10
-3.254503 14.292413 -1.158779 101
-3.266697 14.357121 -0.483302 100
-3.267315 14.371015 -0.257248 101
-2.797678 14.415523 -0.962472 100
-2.796216 14.420961 -0.736430 101
-2.790490 14.439968 -0.511014 101
-2.794513 14.473930 -0.285620 101
-3.690739 14.204779 -1.131866 85
-3.696517 14.236917 -0.454539 74
-3.291095 14.574840 -1.644311 4
-3.694421 14.238750 -0.228519 69
-3.231519 14.322285 -0.934025 101
-3.231869 14.335135 -0.708419 101
-2.762240 14.385242 -1.186273 101
-2.773713 14.484699 -0.059202 60
-3.678002 14.244867 -0.907559 79
-3.667659 14.214746 -0.679466 83
-3.205313 14.307611 -1.159095 101
-3.215521 14.364573 -0.483171 100
-3.214331 14.370665 -0.257039 101
-2.747144 14.425239 -0.962472 99
-2.744155 14.422825 -0.736029 101
-2.737834 14.437839 -0.510597 101
-3.639782 14.202300 -1.357506 77
-2.742483 14.475739 -0.285465 100
-3.642122 14.221438 -1.132173 84
-3.650764 14.265226 -0.455033 78
-3.651633 14.278682 -0.228954 87
-3.177180 14.313992 -0.932755 101
-3.178350 14.330728 -0.707649 101
-2.712748 14.398715 -1.186596 101
-3.624317 14.242143 -0.906574 93
-3.612109 14.204227 -0.678356 85
-3.154493 14.314818 -1.158779 101
-3.165360 14.375710 -0.483171 100
-3.166727 14.393515 -0.257248 101
-2.694575 14.422969 -0.961688 100
-2.693793 14.432316 -0.736029 101
-2.692137 14.458628 -0.511014 101
-3.591690 14.210431 -1.357137 80
-3.597872 14.245038 -1.133096 89
-3.602460 14.273378 -0.454910 64
-3.604263 14.290712 -0.228954 100
-3.130548 14.328349 -0.933009 101
-3.137627 14.372416 -0.709189 101
-2.664985 14.407632 -1.186596 101
-3.569294 14.223104 -0.904603 81
-3.570818 14.239382 -0.679466 97
-3.107006 14.325200 -1.158779 101
-3.117671 14.386127 -0.483171 100
-3.118132 14.400028 -0.257179 101
-2.647452 14.435751 -0.961949 100
-2.648079 14.452958 -0.736630 101
-3.567480 14.287549 -1.591976 2
-3.531811 14.192597 -1.354187 69
-3.542703 14.246530 -1.132173 93
-3.552032 14.294250 -0.455157 74
-3.548016 14.288298 -0.228705 100
-3.079726 14.347524 -0.933517 101
-3.079133 14.356459 -0.707841 101
-2.611577 14.413356 -1.186273 43
-3.517353 14.236038 -0.904603 92
-3.522677 14.267832 -0.680205 100
-3.055613 14.340327 -1.159095 101
-3.063589 14.389566 -0.482909 100
-3.066526 14.415195 -0.257248 101
-2.594916 14.445288 -0.961949 100
-3.501265 14.242498 -1.585527 21
-3.485677 14.208100 -1.354555 64
-3.485944 14.219465 -1.129097 80
-3.500805 14.290418 -0.454663 74
-3.500614 14.299985 -0.228705 101
-3.032956 14.361564 -0.933771 101
-3.033158 14.374409 -0.708226 101
-3.039219 14.415062 -0.030855 14
-3.474849 14.267019 -0.905835 100
-3.475343 14.279434 -0.680205 101
-3.005588 14.338674 -1.158149 101
-3.017494 14.407473 -0.483171 100
-3.017887 14.421370 -0.257179 101
-2.549077 14.465606 -0.962734 6
-3.451206 14.242435 -1.584238 24
-3.435124 14.216309 -1.354187 64
-3.440968 14.250931 -1.130635 85
-3.452777 14.310324 -0.454910 76
-3.451614 14.316006 -0.228767 101
-2.982806 14.372064 -0.933771 101
-2.982964 14.384909 -0.708226 101
-2.985636 14.409916 -0.030821 44
-3.426889 14.286826 -0.906327 100
-3.422684 14.279821 -0.679651 101
-2.956322 14.352983 -1.158464 101
-2.966378 14.414001 -0.483040 100
-2.968335 14.435734 -0.257248 101
-3.409778 14.289209 -1.588107 8
-3.874836 14.219310 -0.427110 44
-3.390022 14.247603 -1.356031 44
-3.390238 14.258985 -1.130328 83
-3.402787 14.322293 -0.454910 84
-3.400707 14.324073 -0.228705 101
-2.931858 14.378469 -0.933517 101
-2.934389 14.403051 -0.708612 101
-2.939395 14.439831 -0.030863 66
-3.372599 14.279229 -0.905096 100
-3.371197 14.283854 -0.679281 101
-2.904098 14.351436 -1.157518 101
-2.917133 14.428127 -0.483171 100
-2.917456 14.442022 -0.257179 101
-3.825744 14.224004 -0.653408 54
-3.399362 14.467408 -1.606593 23
-3.823469 14.224927 -0.426879 73
-3.342993 14.270984 -1.357137 31
-3.343171 14.282382 -1.131251 77
-3.349130 14.318512 -0.454416 83
-3.350686 14.335856 -0.228705 101
-2.877731 14.369044 -0.932247 101
-2.880960 14.397535 -0.707841 101
-2.886620 14.438235 -0.030838 83
-3.811726 14.285844 -0.883607 5
-3.326351 14.306469 -0.906081 101
-3.324933 14.311103 -0.680021 101
-2.856316 14.373219 -1.158464 101
-2.865973 14.434301 -0.483040 100
-2.869360 14.463887 -0.257388 100
-3.786314 14.275896 -0.655180 73
-3.350633 14.486935 -1.607453 17
-3.774816 14.242052 -0.426994 89
-3.312845 14.367950 -1.365250 10
-3.769450 14.260870 -0.200821 19
-3.292400 14.290078 -1.130943 69
-3.301820 14.341804 -0.454786 83
-3.298831 14.339669 -0.228581 101
-2.830637 14.394670 -0.933263 101
-2.832996 14.419266 -0.708419 101
-2.840826 14.471774 -0.030888 86
-3.741009 14.210340 -1.104887 10
-3.751677 14.260448 -0.881221 100
-3.275501 14.314101 -0.905835 101
-3.272286 14.310936 -0.679466 101
-2.805363 14.379188 -1.158149 101
-2.817100 14.452065 -0.483302 100
-2.816561 14.462038 -0.257179 101
-3.729383 14.261964 -0.653939 68
-3.310635 14.545074 -1.612612 11
-3.721036 14.239668 -0.426531 95
-3.273315 14.426023 -1.369676 9
-3.721732 14.281665 -0.200930 47
-3.243422 14.305364 -1.131251 71
-3.250870 14.349339 -0.454663 86
-3.249629 14.355000 -0.228643 101
-2.784120 14.424067 -0.934532 101
-2.779558 14.413386 -0.707649 101
-2.790205 14.481620 -0.030888 77
-3.677268 14.169283 -1.100688 34
-3.696752 14.254160 -0.880028 77
-3.224449 14.321595 -0.905589 101
-3.222973 14.326218 -0.679651 101
-2.754136 14.385028 -1.157834 101
-2.764838 14.454014 -0.483040 100
-2.766491 14.475771 -0.257248 101
-3.664221 14.206907 -1.330078 54
-3.674246 14.255635 -0.653053 78
-3.675926 14.272024 -0.427110 100
-3.666882 14.275199 -0.200658 70
-3.189994 14.301028 -1.130020 62
-3.201631 14.364501 -0.454786 83
-3.199501 14.366256 -0.228643 101
-2.730782 14.418010 -0.933517 101
-2.729972 14.426927 -0.707841 101
-3.636683 14.216812 -1.103387 39
-3.649940 14.278583 -0.880744 63
-3.174438 14.332764 -0.905589 101
-3.171218 14.329578 -0.679281 101
-2.703170 14.390635 -1.157518 101
-2.716580 14.475365 -0.483434 100
-3.613626 14.215750 -1.329717 61
-3.619543 14.249008 -0.652167 83
-3.629036 14.296395 -0.427458 98
-3.603288 14.233630 -0.199895 49
-3.141764 14.319867 -1.130635 67
-3.150614 14.371684 -0.454663 86
-3.152757 14.392964 -0.228891 101
-2.679708 14.423529 -0.933263 101
-2.679596 14.436368 -0.707841 101
-3.583134 14.213948 -1.102187 39
-3.595199 14.271877 -0.879551 63
-3.122688 14.335956 -0.905096 100
-3.123729 14.352274 -0.679836 101
-2.652920 14.399982 -1.157518 101
-2.670377 14.508350 -0.484221 9
-3.570757 14.255327 -1.332245 78
-3.573664 14.277062 -0.652876 84
-3.576199 14.297339 -0.427110 95
-3.558497 14.265506 -0.200168 56
-3.091807 14.330736 -1.130635 68
-3.102132 14.390408 -0.454910 81
-3.099960 14.392155 -0.228705 100
-2.630735 14.440657 -0.933771 101
-2.631264 14.457438 -0.708419 100
-3.533399 14.226394 -1.102187 40
-3.549080 14.299872 -0.880505 77
-3.071577 14.342911 -0.904850 101
-3.071695 14.355328 -0.679466 101
-2.603753 14.417059 -1.158149 101
-3.524386 14.272681 -1.560745 64
-3.517754 14.256190 -1.331161 79
-3.526289 14.301185 -0.653408 94
-3.523941 14.302073 -0.426879 100
-3.518813 14.308299 -0.200603 55
-3.045095 14.344811 -1.130943 64
-3.051906 14.388882 -0.454539 83
-3.053046 14.406268 -0.228767 101
-2.584941 14.461090 -0.934532 100
-3.485255 14.234159 -1.101887 41
-3.500691 14.307684 -0.880267 95
-3.023174 14.349111 -0.904603 101
-3.024074 14.365435 -0.679466 101
-2.557322 14.433466 -1.158779 101
-3.458222 14.206994 -1.552299 35
-3.469518 14.263906 -1.330800 88
-3.479789 14.316683 -0.653585 100
-3.479325 14.325337 -0.427226 100
-3.467904 14.316607 -0.200549 59
-2.992561 14.343641 -1.130020 60
-3.002476 14.403361 -0.454663 78
-3.003555 14.420753 -0.228829 101
-3.921802 14.248727 -0.399897 5
-3.438352 14.257870 -1.102787 44
-3.446985 14.304290 -0.879312 100
-2.973068 14.359576 -0.904603 101
-2.975530 14.383729 -0.679836 101
-2.983565 14.434886 -0.002573 0
-3.423445 14.280869 -1.559056 26
-3.419706 14.275930 -1.330800 100
-3.429793 14.328742 -0.653585 100
-3.428369 14.333507 -0.427110 98
-3.414944 14.316997 -0.200386 73
-2.942362 14.354023 -1.130020 72
-2.952940 14.417680 -0.454786 81
-2.954027 14.435062 -0.228891 101
-3.855718 14.192333 -0.624110 2
-3.862775 14.227555 -0.398923 61
-3.384186 14.250326 -1.101287 46
-3.396412 14.312278 -0.879073 101
-2.923436 14.369762 -0.904603 101
-2.923496 14.382163 -0.679281 101
-2.934608 14.449000 -0.002573 0
-3.420055 14.486108 -1.580170 39
-3.369790 14.283702 -1.330439 97
-3.378845 14.332630 -0.653230 101
-3.377474 14.337369 -0.426879 100
-3.364948 14.328830 -0.200386 100
-2.891451 14.360296 -1.129713 71
-2.901806 14.423980 -0.454663 89
-2.901257 14.433523 -0.228705 101
-3.807188 14.209566 -0.624280 70
-3.814122 14.244815 -0.399031 81
-3.336238 14.269820 -1.101887 42
-3.348249 14.331823 -0.879551 100
-2.874823 14.387710 -0.905096 101
-2.874839 14.400117 -0.679651 101
-2.891978 14.498383 -0.002580 38
-3.790436 14.231255 -0.851755 76
-3.365867 14.482460 -1.578481 47
-3.321712 14.303139 -1.331161 100
-3.329698 14.348230 -0.653408 101
-3.328310 14.352966 -0.426994 100
-3.313108 14.332695 -0.200277 100
-2.841307 14.370302 -1.129713 57
-2.853764 14.445788 -0.455033 89
-2.853180 14.455334 -0.228891 101
-3.763689 14.245952 -0.625297 84
-3.750085 14.203917 -0.397517 60
-3.287302 14.285266 -1.102187 42
-3.295517 14.331749 -0.878835 101
-2.826888 14.409410 -0.905835 100
-2.825325 14.413985 -0.679836 101
-2.838277 14.492688 -0.002578 57
-3.740326 14.233311 -1.078134 54
-3.742765 14.252124 -0.852217 99
-3.318841 14.509631 -1.580170 38
-3.268214 14.299112 -1.329717 83
-3.278703 14.355870 -0.653230 101
-3.276409 14.356700 -0.426763 100
-3.264088 14.348040 -0.200331 100
-2.794256 14.395776 -1.130943 69
-2.801072 14.443880 -0.454663 76
-2.802684 14.465209 -0.228891 100
-3.695733 14.189409 -0.622245 58
-3.698339 14.209215 -0.397300 54
-3.236353 14.292806 -1.101887 45
-3.247875 14.354903 -0.879551 100
-2.774660 14.411427 -0.905342 101
-2.775290 14.427772 -0.680021 101
-2.785645 14.494750 -0.002576 44
-3.690113 14.246411 -1.078134 76
-3.680424 14.218856 -0.849445 75
-3.220231 14.322245 -1.330800 16
-3.227842 14.367391 -0.653230 100
-3.228118 14.379930 -0.427110 100
-3.216605 14.371056 -0.200494 42
-2.742496 14.397607 -1.130328 75
-2.750637 14.453569 -0.454663 81
-2.752921 14.478833 -0.228954 100
-3.650454 14.208945 -1.301554 78
-3.651149 14.221578 -0.623093 66
-3.656666 14.253022 -0.398166 66
-3.185575 14.300122 -1.101587 43
-3.194277 14.350562 -0.878596 101
-2.725079 14.424948 -0.905589 101
-2.725652 14.441298 -0.680205 101
-3.629507 14.216686 -1.074919 75
-3.629781 14.227747 -0.849214 82
-3.636165 14.262787 -0.172127 1
-3.161614 14.294501 -1.327189 8
-3.176809 14.374669 -0.653053 100
-3.175317 14.379397 -0.426763 100
-3.171513 14.393361 -0.200658 44
-2.695470 14.410542 -1.130635 71
-2.701223 14.454752 -0.454416 66
-3.602337 14.217111 -1.301201 68
-3.610835 14.260727 -0.624280 82
-3.612324 14.276699 -0.398490 78
-3.134719 14.295022 -1.100388 37
-3.150090 14.376678 -0.879551 100
-2.675773 14.426054 -0.905096 101
-2.676291 14.442400 -0.679836 101
-3.578446 14.213170 -1.073750 76
-3.585503 14.251324 -0.849907 100
-3.597625 14.309677 -0.172548 30
-3.128274 14.381220 -0.652876 101
-3.128465 14.393755 -0.426879 98
-3.117795 14.388723 -0.200440 67
-2.642951 14.408103 -1.129713 63
-3.562339 14.258115 -1.531688 13
-3.556558 14.245058 -1.302614 83
-3.562037 14.277113 -0.624449 90
-3.563495 14.293086 -0.398599 90
-3.089092 14.325355 -1.101887 43
-3.098318 14.379755 -0.879073 101
-2.622734 14.419559 -0.904111 101
-2.622508 14.431957 -0.678911 43
-3.535775 14.252619 -1.075796 80
-3.542727 14.290818 -0.851524 100
-3.548908 14.325957 -0.172595 83
-3.080073 14.399793 -0.653230 100
-3.078575 14.404508 -0.426879 100
-3.071717 14.419078 -0.200712 50
-2.594053 14.425091 -1.130328 79
-3.497333 14.208652 -1.525054 24
-3.506812 14.257386 -1.302614 96
-3.512179 14.289459 -0.624449 91
-3.512628 14.301555 -0.398490 95
-3.041549 14.347756 -1.102787 43
-3.047277 14.386577 -0.878835 101
-2.573786 14.436488 -0.904603 74
-3.488844 14.276500 -1.076673 79
-3.489980 14.291460 -0.850831 101
-3.495087 14.322716 -0.172408 101
-3.029790 14.410457 -0.653230 101
-3.028275 14.415166 -0.426879 100
-3.020547 14.425797 -0.200658 46
-2.543684 14.434058 -1.130328 73
-3.454276 14.247839 -1.527956 30
-3.453270 14.254051 -1.301201 100
-3.463218 14.305516 -0.624619 98
-3.464565 14.321502 -0.398707 101
-2.986567 14.334856 -1.100988 42
-2.997040 14.397125 -0.878835 101
-3.912213 14.243836 -0.371322 39
-3.437121 14.280834 -1.076089 87
-3.439138 14.299672 -0.850600 101
-3.436658 14.299828 -0.171987 64
-2.976236 14.405292 -0.652521 100
-2.977130 14.421734 -0.426763 100
-2.971853 14.444075 -0.200767 47
-3.417471 14.313982 -1.533761 15
-3.409956 14.293150 -1.303675 100
-3.412299 14.313639 -0.624449 91
-3.414491 14.333523 -0.398707 101
-2.937223 14.349119 -1.101287 48
-2.943453 14.391875 -0.877880 101
-3.852248 14.211054 -0.596522 80
-3.854935 14.230447 -0.370619 100
-3.388849 14.300566 -1.076673 79
-3.388014 14.307768 -0.850369 101
-3.391954 14.335159 -0.172268 76
-2.925586 14.415663 -0.652521 100
-2.927986 14.439951 -0.426994 100
-2.919973 14.434249 -0.200494 61
-3.822761 14.203592 -0.822362 3
-3.402783 14.464655 -1.548688 26
-3.357980 14.284986 -1.301908 100
-3.363901 14.320986 -0.624280 96
-3.366027 14.340875 -0.398599 100
-2.888050 14.350960 -1.100688 49
-2.897285 14.409386 -0.878358 101
-3.806134 14.227611 -0.596684 101
-3.807724 14.243153 -0.370619 100
-3.340502 14.307839 -1.076381 89
-3.340549 14.318924 -0.850369 101
-3.348031 14.361910 -0.172455 100
-2.880111 14.437042 -0.653053 101
-2.882430 14.461345 -0.427342 98
-2.869570 14.444354 -0.200494 67
-3.781354 14.247731 -0.824149 100
-3.354964 14.488072 -1.549932 26
-3.307198 14.292739 -1.301554 100
-3.315691 14.340427 -0.624619 91
-3.318648 14.364224 -0.398923 97
-2.841031 14.376606 -1.101887 48
-2.847743 14.423328 -0.878596 101
-3.753389 14.229217 -0.596198 101
-3.752887 14.237023 -0.370116 100
-3.285177 14.296085 -1.074627 87
-3.290547 14.330498 -0.850369 101
-3.296089 14.365712 -0.172361 100
-2.828931 14.443086 -0.652876 101
-2.829629 14.459546 -0.426994 98
-2.820596 14.462147 -0.200603 73
-3.731293 14.250166 -1.050732 99
-2.811560 14.428599 0.025656 0
-3.716391 14.202899 -0.820799 77
-3.313194 14.538488 -1.554079 18
-3.259066 14.311964 -1.302261 66
-3.262102 14.336319 -0.623941 98
-3.267662 14.371808 -0.398815 100
-2.786360 14.362925 -1.100088 48
-2.798252 14.437079 -0.878835 101
-3.700868 14.230578 -0.595712 101
-3.703382 14.249981 -0.370116 101
-3.238136 14.319084 -1.075504 91
-3.239012 14.334045 -0.849907 101
-3.246217 14.377064 -0.172361 101
-2.778846 14.452806 -0.652876 101
-2.779514 14.469263 -0.426994 100
-3.669508 14.177777 -1.270966 49
-2.769344 14.467977 -0.200549 73
-3.668565 14.212882 -1.047033 100
-3.666790 14.215785 -0.820799 79
-3.207346 14.315476 -1.301554 56
-3.215532 14.363218 -0.624619 99
-3.215729 14.375322 -0.398599 100
-2.738445 14.384318 -1.100988 52
-2.746348 14.438914 -0.878358 101
-3.650179 14.239538 -0.595550 101
-3.656595 14.274443 -0.370418 101
-3.188999 14.334194 -1.075796 91
-3.191556 14.356959 -0.850600 101
-3.195145 14.384403 -0.172315 101
-2.729120 14.466345 -0.653053 101
-2.730471 14.486735 -0.427226 97
-3.630831 14.232974 -1.274770 52
-3.618930 14.225601 -1.047033 67
-3.623050 14.251722 -0.822139 95
-3.157356 14.326585 -1.301554 64
-3.161937 14.358744 -0.623941 100
-3.167249 14.394270 -0.398815 100
-2.688217 14.393789 -1.100988 52
-2.698128 14.460188 -0.879073 101
-3.600451 14.252193 -0.595550 101
-3.606745 14.287119 -0.370418 101
-3.139797 14.349135 -1.076089 91
-3.138010 14.352407 -0.849676 101
-3.145768 14.399376 -0.172361 101
-2.677153 14.467924 -0.652698 101
-3.583070 14.253291 -1.275462 53
-3.574169 14.257481 -1.048456 80
-3.574292 14.268146 -0.822362 99
-3.582155 14.309748 -0.144181 3
-3.109006 14.345309 -1.302261 38
-3.114299 14.381418 -0.624449 100
-3.116077 14.401343 -0.398707 100
-2.637151 14.399178 -1.100688 51
-2.645366 14.457756 -0.878358 101
-3.539036 14.188147 -1.756615 9
-3.551456 14.268600 -0.595712 101
-3.554706 14.291915 -0.370217 101
-3.086091 14.344460 -1.074919 98
-3.090980 14.378948 -0.850600 101
-3.095191 14.410333 -0.172361 101
-3.538811 14.279274 -1.504691 31
-3.531967 14.261935 -1.275116 52
-3.524956 14.261508 -1.047886 97
-3.527915 14.283797 -0.822586 100
-3.532766 14.313781 -0.144103 10
-3.065758 14.387758 -0.624280 97
-3.066638 14.403776 -0.398490 97
-2.587976 14.399992 -1.100088 52
-2.598113 14.470379 -0.878596 101
-3.485328 14.172809 -1.753276 17
-3.503168 14.276417 -0.595550 101
-3.508245 14.307508 -0.370317 101
-3.039332 14.358518 -1.075212 95
-3.041628 14.381305 -0.850138 101
-3.044906 14.408777 -0.172221 101
-3.488607 14.279334 -1.503470 44
-3.481818 14.261955 -1.274078 54
-3.470433 14.254342 -1.046463 100
-3.476146 14.288263 -0.822139 99
-3.487504 14.345459 -0.144299 100
-3.016336 14.402284 -0.624449 100
-3.016341 14.414392 -0.398490 100
-2.542538 14.436436 -1.102187 43
-3.436770 14.188748 -1.753753 7
-3.932480 14.255560 -0.343334 23
-3.453312 14.288558 -0.595550 101
-3.459220 14.323554 -0.370418 101
-2.990006 14.372945 -1.075504 98
-2.989784 14.384015 -0.849676 101
-2.999472 14.442816 -0.172502 100
-3.437810 14.287556 -1.503063 29
-3.431082 14.270147 -1.273732 42
-3.422410 14.274155 -1.047033 100
-3.426184 14.300326 -0.822139 100
-3.436452 14.353662 -0.144260 99
-2.966905 14.416628 -0.624619 100
-2.969324 14.440480 -0.398923 100
-3.879186 14.246313 -0.569795 42
-3.862920 14.195839 -0.341570 32
-3.404636 14.304343 -0.595712 101
-3.410462 14.339352 -0.370518 101
-2.939396 14.379309 -1.075212 100
-2.942373 14.406016 -0.850369 101
-2.945501 14.433509 -0.172268 101
-3.401298 14.353550 -1.508761 17
-3.381825 14.281900 -1.273732 47
-3.370730 14.278248 -1.046463 101
-3.372578 14.296651 -0.821246 100
-3.390916 14.385035 -0.144455 100
-2.914980 14.419062 -0.624280 100
-2.915733 14.435080 -0.398490 100
-3.824250 14.240465 -0.569024 101
-3.811271 14.201511 -0.341384 33
-3.353772 14.312249 -0.595550 101
-3.359476 14.347276 -0.370418 101
-2.887614 14.381660 -1.074627 98
-2.891283 14.412284 -0.850138 101
-2.895887 14.447624 -0.172315 101
-3.802403 14.243737 -0.795847 84
-3.363830 14.419588 -1.514459 23
-3.330142 14.285856 -1.273041 53
-3.321772 14.293813 -1.046748 101
-3.324460 14.316116 -0.821693 100
-3.342490 14.404576 -0.144533 101
-2.865409 14.433069 -0.624449 97
-2.866105 14.449092 -0.398599 94
-3.766333 14.222817 -0.567790 95
-3.767813 14.237925 -0.341941 34
-3.302894 14.319974 -0.595388 101
-3.311170 14.366708 -0.370619 101
-2.838167 14.395565 -1.074919 95
-2.839413 14.414453 -0.849676 101
-2.845437 14.457644 -0.172315 101
-3.746380 14.223508 -1.020788 81
-3.748593 14.241473 -0.794984 101
-3.324162 14.477782 -1.519343 24
-3.278472 14.289626 -1.272349 59
-3.273742 14.313076 -1.047317 101
-3.278091 14.343192 -0.822586 100
-3.285090 14.384954 -0.144221 101
-2.813426 14.435149 -0.624110 97
-2.817848 14.470801 -0.398923 100
-3.717432 14.229582 -1.247920 36
-3.713499 14.224310 -0.567327 96
-3.716906 14.247166 -0.341849 33
-3.250823 14.323689 -0.595064 101
-3.258895 14.370456 -0.370418 101
-2.788279 14.409374 -1.075212 100
-2.790177 14.432199 -0.850138 101
-2.796767 14.479360 -0.172455 101
-3.701268 14.255928 -1.022173 101
-3.691342 14.227536 -0.793475 100
-3.230628 14.312775 -1.273386 55
-3.221132 14.312738 -1.046463 101
-3.223623 14.335065 -0.821469 100
-3.226965 14.361212 -0.143869 101
-2.764522 14.452732 -0.624449 94
-2.765066 14.468767 -0.398599 94
-3.662770 14.223172 -1.246229 56
-3.663825 14.237186 -0.567327 98
-3.667152 14.260054 -0.341849 36
-3.202546 14.342750 -0.595388 101
-3.207842 14.377841 -0.370317 101
-2.737964 14.419020 -1.075212 95
-2.738293 14.434004 -0.849676 101
-3.652472 14.272627 -1.022450 101
-3.638687 14.228726 -0.792828 82
-3.181511 14.327854 -1.273732 45
-3.172876 14.331686 -1.047033 101
-3.172702 14.342331 -0.821246 100
-3.179405 14.384105 -0.143986 101
-2.712582 14.454438 -0.624110 97
-2.716018 14.486191 -0.398815 66
-3.612119 14.232008 -1.245891 54
-3.618036 14.265386 -0.567944 100
-3.619317 14.280519 -0.342034 35
-3.152461 14.353842 -0.595388 101
-3.159348 14.396763 -0.370518 101
-2.687615 14.428489 -1.075212 100
-2.687892 14.443474 -0.849676 101
-3.588968 14.231119 -1.018573 101
-3.591926 14.252960 -0.793475 100
-3.128927 14.327193 -1.272695 52
-3.121171 14.334869 -1.046463 101
-3.123492 14.357216 -0.821469 100
-3.127486 14.387297 -0.143908 101
-2.662089 14.463822 -0.624110 71
-3.580986 14.308634 -1.480039 4
-3.567218 14.263871 -1.247582 55
-3.568169 14.277941 -0.567944 100
-3.572290 14.304722 -0.342313 33
-3.100542 14.356968 -0.595064 101
-3.107265 14.399912 -0.370317 101
-2.637096 14.437808 -1.075212 100
-2.639457 14.464581 -0.850369 101
-3.535737 14.219763 -1.708340 14
-3.537180 14.235856 -1.018019 101
-3.547747 14.288714 -0.794768 101
-3.076177 14.326385 -1.271657 53
-3.071946 14.337337 -1.045894 101
-3.075028 14.363589 -0.821246 101
-3.077248 14.385855 -0.143790 101
-3.523982 14.281789 -1.476046 14
-3.518944 14.271752 -1.247244 58
-3.523671 14.301337 -0.568407 100
-3.521010 14.300958 -0.341941 32
-3.056238 14.382809 -0.595712 101
-3.057005 14.398402 -0.370016 101
-2.588500 14.442547 -1.074919 98
-2.592180 14.477186 -0.850600 13
-3.484779 14.215974 -1.706488 36
-3.497548 14.278515 -1.020234 100
-3.492747 14.269363 -0.793043 101
-3.030300 14.344304 -1.272349 43
-3.021880 14.347974 -1.045894 101
-3.024871 14.374236 -0.821246 100
-3.027837 14.400423 -0.143830 101
-3.469408 14.274666 -1.474049 12
-3.466283 14.272330 -1.246229 47
-3.475614 14.321319 -0.568716 98
-3.472954 14.320933 -0.342127 35
-3.007648 14.401215 -0.596036 101
-3.009994 14.424644 -0.370418 101
-2.542211 14.475069 -1.076673 29
-3.434203 14.224189 -1.706024 19
-3.444878 14.278998 -1.019403 101
-3.445725 14.293118 -0.793690 101
-2.982641 14.366500 -1.273386 37
-2.971634 14.358464 -1.045894 101
-2.974588 14.384726 -0.821246 101
-2.980754 14.426579 -0.143986 101
-3.422414 14.298284 -1.475247 4
-3.418426 14.292064 -1.246905 64
-3.422999 14.321657 -0.568253 100
-3.421325 14.325133 -0.341941 33
-2.954553 14.395882 -0.595388 101
-2.961693 14.442801 -0.370619 101
-3.438403 14.460144 -1.732891 34
-3.394713 14.286907 -1.019127 101
-3.392797 14.289353 -0.792828 101
-3.397112 14.318063 -0.115578 2
-2.922291 14.372660 -1.046179 101
-2.927538 14.410676 -0.822139 101
-2.929582 14.432977 -0.143947 101
-3.387090 14.372125 -1.481637 9
-3.367603 14.300030 -1.246567 53
-3.373902 14.337409 -0.568407 100
-3.375877 14.356452 -0.342406 36
-2.902704 14.398271 -0.595064 101
-2.909681 14.445212 -0.370418 101
-3.398774 14.518480 -1.738449 39
-3.346640 14.306440 -1.019680 101
-3.342897 14.301109 -0.792828 101
-3.360759 14.388259 -0.116049 33
-2.869592 14.383274 -1.046179 101
-2.873920 14.417393 -0.821916 100
-2.875101 14.435772 -0.143869 101
-3.346973 14.438724 -1.487228 13
-3.310671 14.292863 -1.244876 56
-3.315021 14.322420 -0.567327 96
-3.322334 14.364833 -0.342313 33
-2.849912 14.408813 -0.595064 101
-2.855942 14.451857 -0.370317 101
-3.343756 14.523096 -1.737523 39
-3.287024 14.287500 -1.017465 100
-3.292249 14.321051 -0.793259 101
-3.305314 14.388785 -0.115955 81
-2.820308 14.397084 -1.046463 101
-2.822917 14.423396 -0.821693 101
-2.823967 14.441786 -0.143830 101
-3.314165 14.527946 -1.495215 13
-3.260603 14.304367 -1.244876 67
-3.265672 14.337852 -0.567482 101
-3.266559 14.353013 -0.341756 32
-2.799111 14.418768 -0.595064 101
-2.806445 14.469696 -0.370518 101
-3.239029 14.310731 -1.018296 101
-3.241426 14.332640 -0.793259 101
-3.249777 14.380928 -0.115798 100
-2.768529 14.399005 -1.045894 101
-2.771799 14.429240 -0.821469 101
-2.777308 14.471196 -0.144025 101
-3.259947 14.523892 -1.493618 7
-3.207163 14.300105 -1.243523 66
-3.218226 14.360865 -0.567944 100
-3.219059 14.376035 -0.342034 35
-2.750259 14.436303 -0.595388 101
-2.756667 14.483333 -0.370619 101
-3.189922 14.325846 -1.018573 101
-3.191376 14.343867 -0.793259 101
-3.201294 14.399993 -0.115861 100
-2.718250 14.408582 -1.045894 101
-2.723634 14.450602 -0.822139 100
-3.160661 14.326782 -1.244876 69
-3.166357 14.364204 -0.567636 100
-3.166277 14.375467 -0.341756 33
-2.699850 14.445815 -0.595388 101
-3.139043 14.332995 -1.018296 101
-3.142995 14.362723 -0.793690 101
-3.148446 14.399357 -0.115766 84
-2.666343 14.410162 -1.045325 101
-2.672360 14.456110 -0.821916 100
-3.105691 14.314329 -1.242847 60
-3.120615 14.394661 -0.568407 101
-3.118009 14.394197 -0.341941 34
-3.092130 14.355435 -1.019127 101
-3.090151 14.357842 -0.792828 101
-3.104779 14.437476 -0.115986 99
-2.618163 14.431159 -1.046179 101
-2.619746 14.453561 -0.821246 100
-3.059031 14.340674 -1.244200 68
-3.060351 14.358556 -0.566556 100
-3.067745 14.404994 -0.341941 33
-3.040348 14.358334 -1.018573 101
-3.039188 14.364635 -0.792612 101
-3.048573 14.420832 -0.115766 101
-2.565677 14.428426 -1.045325 101
-3.008137 14.347364 -1.243862 71
-3.016768 14.400448 -0.567790 100
-3.020721 14.431271 -0.342313 32
-2.988584 14.361045 -1.018019 101
-2.989840 14.379066 -0.792828 101
-2.998217 14.431386 -0.115766 101
-2.958773 14.361695 -1.244200 101
-2.965579 14.406996 -0.567636 100
-2.971007 14.445670 -0.342406 36
-2.938908 14.375366 -1.018296 101
-2.935276 14.369921 -0.791750 101
-2.942637 14.418328 -0.115578 101
-2.903089 14.344590 -1.241832 101
-2.912894 14.405507 -0.567173 100
-2.915812 14.432434 -0.341849 30
-2.891068 14.397274 -1.019127 101
-2.889027 14.399660 -0.792828 101
-2.893862 14.436356 -0.115641 101
-2.858438 14.382001 -1.244200 63
-2.867263 14.439110 -0.568099 100
-2.866194 14.446447 -0.341941 32
-2.840022 14.403363 -1.018850 101
-2.838745 14.409657 -0.792828 101
-2.844225 14.450294 -0.115672 101
-2.806691 14.384068 -1.243523 15
-2.812255 14.425491 -0.567173 100
-2.815749 14.456364 -0.341941 35
-2.789728 14.413189 -1.018850 101
-2.786912 14.411635 -0.792397 101
-2.796043 14.471915 -0.115766 101
-2.766390 14.458775 -0.568099 100
-2.767523 14.477888 -0.342220 33
-2.738655 14.418919 -1.018573 101
-2.739567 14.436973 -0.793259 101
-2.715903 14.468344 -0.568099 100
-2.708123 14.440295 -0.341106 8
-2.684652 14.408776 -1.017188 101
-2.687694 14.438594 -0.792828 101
-2.660267 14.450228 -0.567019 25
-2.638475 14.441643 -1.018850 101
-2.638530 14.455779 -0.793259 101
-2.589866 14.446385 -1.018573 101
-2.543798 14.495084 -1.021342 13