# This PCD file was generated using the MATLAB® pcwrite function
# from Computer Vision Toolbox®.
# .PCD v.7 - Point Cloud Data file format
VERSION .7
FIELDS x y z intensity
SIZE 4 4 4 1
TYPE F F F U
COUNT 1 1 1 1
WIDTH 1464
HEIGHT 1
VIEWPOINT 0 0 0 1 0 0 0
POINTS 1464
DATA ascii
-0.958531 11.420931 -0.398227 25
-0.954993 11.401929 -0.221693 39
-0.596773 11.494349 -0.776589 76
-0.940246 11.248747 0.301500 25
-0.593929 11.477081 -0.598271 58
-0.935189 11.211103 0.473483 53
-0.585566 11.352708 -0.067459 43
-0.582397 11.328536 0.106913 46
-0.968786 11.685480 -1.131109 9
-1.300070 11.313522 -0.023851 24
-0.968455 11.705552 -0.951214 21
-0.928943 11.297783 -0.045505 89
-0.925998 11.285344 0.128464 30
-0.575035 11.449864 -0.420377 38
-0.912847 11.148223 0.642995 23
-0.570753 11.403136 -0.243148 33
-0.563199 11.290489 0.280225 52
-1.294887 11.404542 -0.376748 31
-0.556841 11.201125 0.450439 85
-0.950109 11.676173 -1.311951 11
-1.286698 11.349557 -0.199376 53
-0.953633 11.744063 -0.772280 10
-0.928937 11.463981 -0.576606 56
-0.919300 11.432177 -0.398505 28
-0.913588 11.385261 -0.221305 46
-0.556840 11.500349 -0.776859 79
-0.899698 11.236017 0.301073 27
-0.553285 11.467114 -0.597647 63
-0.894458 11.194381 0.472642 55
-0.545934 11.354683 -0.067459 47
-0.542275 11.318514 0.106800 49
-0.927990 11.688790 -1.131109 11
-1.260128 11.314016 -0.023843 38
-0.925700 11.685014 -0.949277 23
-1.251032 11.249657 0.150150 35
-0.891384 11.324883 -0.045602 83
-0.886912 11.292496 0.128509 33
-0.534504 11.439823 -0.419937 31
-0.872367 11.131435 0.641847 27
-0.530759 11.401065 -0.243063 29
-0.524155 11.300375 0.280423 55
-1.255944 11.416941 -0.377010 34
-0.908420 11.667529 -1.310616 11
-1.250129 11.381807 -0.199865 56
-0.909541 11.707526 -0.769664 9
-0.887988 11.455205 -0.576005 61
-0.880770 11.427191 -0.398227 29
-0.875215 11.380253 -0.221150 41
-0.518520 11.498145 -0.776589 74
-0.861516 11.226978 0.300753 34
-0.515973 11.484848 -0.598479 68
-0.857026 11.193300 0.472474 68
-0.508099 11.352435 -0.067435 42
-0.503670 11.296275 0.106574 46
-0.886808 11.660044 -1.128037 11
-1.220884 11.302225 -0.023809 36
-0.885739 11.672117 -0.947985 22
-1.213291 11.249766 0.150097 38
-0.854426 11.335753 -0.045634 72
-0.848560 11.283409 0.128373 31
-0.496739 11.445526 -0.420083 30
-0.837242 11.158161 0.643225 10
-0.493295 11.410752 -0.243233 33
-0.485819 11.282076 0.279928 60
-1.217229 11.413092 -0.376748 40
-0.869133 11.662549 -1.309725 12
-1.209415 11.358052 -0.199376 61
-0.858578 11.547280 -0.758938 8
-0.850587 11.466054 -0.576406 71
-0.840498 11.426215 -0.398088 31
-0.836018 11.391219 -0.221305 37
-0.479356 11.523810 -0.778205 46
-0.824637 11.261822 0.301607 29
-0.474735 11.458641 -0.597023 62
-0.817087 11.184265 0.471970 71
-0.468677 11.358134 -0.067459 46
-0.465132 11.317944 0.106762 46
-1.200344 11.467960 -0.555872 5
-0.845636 11.655118 -1.127269 14
-1.181948 11.310386 -0.023817 36
-0.844271 11.663198 -0.947017 25
-1.173738 11.249941 0.150044 36
-0.813653 11.318701 -0.045554 92
-0.809435 11.286283 0.128373 35
-0.457245 11.451173 -0.420230 34
-0.453477 11.404400 -0.243063 29
-0.447429 11.299671 0.280324 72
-1.176518 11.405303 -0.376354 50
-0.834741 11.748752 -1.319074 13
-1.171796 11.378077 -0.199656 56
-0.814186 11.486472 -0.754752 34
-1.154879 11.232158 0.323286 9
-0.810741 11.464935 -0.576206 80
-0.801726 11.445030 -0.398644 28
-0.796529 11.398058 -0.221383 41
-0.784209 11.248675 0.301180 28
-0.434885 11.464220 -0.597231 62
-0.778596 11.195023 0.472306 71
-0.429178 11.363698 -0.067482 40
-1.174093 11.589131 -0.741023 1
-0.425773 11.323495 0.106800 53
-1.153873 11.408480 -0.552790 12
-0.804947 11.657998 -1.127269 16
-1.141656 11.306482 -0.023801 40
-0.803006 11.658119 -0.946371 29
-1.134061 11.249990 0.149991 31
-0.774139 11.321472 -0.045554 81
-0.769489 11.281059 0.128282 33
-0.417271 11.452699 -0.420230 36
-0.413375 11.397921 -0.242892 35
-0.407262 11.281183 0.279829 62
-1.137095 11.413319 -0.376485 59
-0.788636 11.676237 -1.310616 10
-1.132072 11.382098 -0.199656 55
-0.773817 11.485262 -0.754490 41
-1.114874 11.228163 0.323057 29
-0.771252 11.475668 -0.576606 71
-0.760709 11.431804 -0.398088 28
-0.755678 11.384807 -0.221073 39
-0.744410 11.243365 0.300967 32
-1.485408 11.398131 -0.355205 2
-0.394315 11.449699 -0.596399 57
-0.739513 11.197673 0.472306 75
-1.481459 11.382613 -0.178317 33
-0.389509 11.365127 -0.067482 41
-1.123531 11.489861 -0.734421 4
-0.385971 11.316917 0.106725 57
-1.117537 11.448226 -0.554524 36
-0.765290 11.676629 -1.128805 13
-1.104122 11.330304 -0.023843 42
-0.763607 11.680743 -0.947985 22
-1.096720 11.273785 0.150256 34
-0.733320 11.304148 -0.045473 94
-0.730881 11.295650 0.128419 31
-0.376896 11.442101 -0.419790 32
-0.373718 11.403291 -0.242978 32
-0.368402 11.298523 0.280225 62
-1.096101 11.405280 -0.376091 60
-0.749398 11.702721 -1.313287 10
-1.093098 11.393943 -0.199795 55
-0.733976 11.491877 -0.754752 46
-1.074530 11.220045 0.322713 32
-0.731190 11.478290 -0.576606 63
-0.720381 11.426405 -0.397810 32
-0.715232 11.375398 -0.220840 43
-0.705930 11.257866 0.301287 33
-1.447141 11.415143 -0.355576 21
-0.355075 11.474962 -0.597647 35
-0.700160 11.196198 0.472138 72
-1.434170 11.328198 -0.177385 24
-0.349422 11.354424 -0.067411 43
-1.085246 11.513590 -0.735690 10
-0.346512 11.322196 0.106762 57
-1.076743 11.444109 -0.554138 46
-0.725647 11.699105 -1.130725 10
-1.065205 11.342065 -0.023859 36
-0.725146 11.723140 -0.951214 23
-1.055728 11.261628 0.150044 38
-0.694111 11.314638 -0.045505 87
-0.690692 11.290165 0.128328 27
-0.337003 11.455342 -0.420230 31
-0.333226 11.392544 -0.242722 35
-0.328598 11.299750 0.280225 71
-1.056653 11.417032 -0.376354 67
-0.710295 11.741001 -1.317293 9
-1.051450 11.381796 -0.199516 58
-0.693664 11.498379 -0.755014 49
-1.034201 11.215804 0.322484 37
-0.691133 11.488776 -0.577007 63
-1.032826 11.221662 0.495960 31
-0.680729 11.432840 -0.397949 31
-0.677417 11.409762 -0.221460 44
-0.665447 11.240304 0.300753 32
-1.401907 11.376476 -0.354217 15
-0.660603 11.190595 0.471801 71
-1.067657 11.744377 -1.297771 2
-1.393642 11.325197 -0.177260 25
-0.309676 11.351577 -0.067387 41
-1.055150 11.628624 -0.742801 12
-0.306879 11.319338 0.106725 47
-1.037510 11.455755 -0.554524 41
-0.686666 11.733365 -1.133798 11
-1.024527 11.333763 -0.023834 33
-0.680969 11.669877 -0.946694 11
-1.016411 11.265244 0.150044 46
-0.654612 11.316992 -0.045505 100
-0.650357 11.276534 0.128146 32
-0.296497 11.436469 -0.419497 36
-1.373179 11.300878 -0.001987 12
-0.293560 11.397635 -0.242807 35
-0.288436 11.272846 0.279531 61
-1.017149 11.424633 -0.376485 64
-0.671116 11.775159 -1.320855 11
-1.010651 11.373446 -0.199306 64
-0.653976 11.508700 -0.755537 67
-0.994338 11.211380 0.322255 43
-0.650799 11.487130 -0.576806 63
-0.990830 11.193355 0.494553 38
-0.641040 11.439138 -0.398088 32
-0.636693 11.396086 -0.221150 35
-0.626874 11.254535 0.301073 31
-1.363612 11.393209 -0.354588 14
-0.621758 11.196823 0.471970 72
-1.025271 11.732189 -1.296021 40
-1.354576 11.333963 -0.177323 30
-0.269764 11.340592 -0.067316 41
-1.018714 11.679958 -0.745848 5
-0.267177 11.312343 0.106649 64
-0.996476 11.447367 -0.553946 42
-0.649204 11.799298 -1.139943 4
-0.983574 11.321330 -0.023801 40
-0.636954 11.612469 -0.941851 15
-0.976046 11.256770 0.149884 57
-0.615104 11.319208 -0.045505 92
-0.611856 11.294711 0.128328 26
-0.256933 11.453419 -0.420083 33
-1.005917 11.716475 -1.111607 6
-1.336066 11.325464 -0.001990 26
-0.253951 11.406587 -0.242978 34
-1.007997 11.764058 -0.933391 10
-0.976923 11.424130 -0.376354 65
-0.972645 11.396829 -0.199656 54
-0.612949 11.494970 -0.754490 62
-0.955536 11.218766 0.322370 44
-0.610486 11.485342 -0.576606 56
-0.949044 11.164890 0.493146 34
-0.601255 11.445302 -0.398227 26
-0.942729 11.172527 0.666129 1
-0.596244 11.386259 -0.220918 38
-0.586736 11.240683 0.300646 33
-1.326126 11.417759 -0.355205 14
-0.582263 11.190942 0.471633 62
-0.979668 11.680226 -1.289896 24
-1.315935 11.346568 -0.177447 38
-0.230614 11.361460 -0.067435 41
-0.984297 11.759023 -0.750673 11
-0.227984 11.325202 0.106762 55
-0.956899 11.454752 -0.554138 46
-0.944791 11.332660 -0.023817 42
-0.594268 11.570817 -0.938299 10
-0.937178 11.264086 0.149938 55
-0.575555 11.317283 -0.045489 87
-0.572213 11.288779 0.128237 27
-0.962621 11.688147 -1.108596 6
-1.293556 11.302216 -0.001985 22
-0.214297 11.403400 -0.242892 32
-0.965214 11.743640 -0.931500 9
-0.936976 11.423465 -0.376223 58
-0.932164 11.388173 -0.199446 58
-0.573132 11.497024 -0.754490 58
-0.916022 11.214039 0.322141 45
-0.570329 11.479406 -0.576206 69
-0.911040 11.176075 0.493498 30
-0.559342 11.407403 -0.396838 29
-0.898897 11.116050 0.662571 39
-0.555714 11.372293 -0.220608 47
-0.547495 11.242662 0.300646 34
-1.284473 11.406426 -0.354711 14
-0.937298 11.663758 -1.287708 18
-1.277214 11.359041 -0.177571 36
-0.190819 11.354197 -0.067387 41
-0.941968 11.746470 -0.749658 10
-0.188184 11.309932 0.106612 68
-0.917864 11.469970 -0.554716 44
-0.904590 11.327914 -0.023801 39
-0.551016 11.513085 -0.933456 7
-0.898488 11.275263 0.150044 53
-0.536047 11.319223 -0.045489 78
-0.532615 11.286713 0.128192 27
-0.921189 11.683496 -1.107843 6
-1.255419 11.318589 -0.001988 24
-0.174797 11.424072 -0.243318 27
-0.920462 11.699234 -0.927717 10
-1.248979 11.277742 0.172306 15
-0.897407 11.430652 -0.376354 55
-0.890844 11.371421 -0.199097 59
-0.532811 11.494967 -0.754229 53
-0.877496 11.225141 0.322370 37
-0.530808 11.493299 -0.576806 57
-0.873577 11.199107 0.494378 34
-0.520247 11.425260 -0.397394 25
-0.862553 11.150969 0.664469 2
-0.516014 11.374164 -0.220608 40
-0.508428 11.248500 0.300753 30
-1.243782 11.402891 -0.354464 14
-0.896273 11.662995 -1.287270 30
-1.238421 11.371383 -0.177695 35
-0.151025 11.342794 -0.067316 40
-0.887530 11.574556 -0.738484 17
-0.149019 11.334517 0.106838 52
-0.876907 11.461153 -0.554138 48
-0.865652 11.338980 -0.023817 37
-0.857910 11.262378 0.149831 51
-0.495831 11.305040 -0.045425 81
-0.493214 11.288504 0.128192 25
-1.231021 11.445666 -0.532809 2
-0.880401 11.686641 -1.107843 8
-1.215475 11.318926 -0.001987 28
-0.134588 11.396621 -0.242722 24
-0.877526 11.674541 -0.925510 10
-1.209179 11.278056 0.172245 22
-0.856903 11.425741 -0.376091 67
-0.852040 11.386426 -0.199306 62
-0.493537 11.516696 -0.755537 46
-0.839498 11.244084 0.322828 34
-0.490686 11.495083 -0.576806 65
-0.835370 11.214043 0.494905 39
-0.480392 11.427005 -0.397394 27
-0.476661 11.383886 -0.220763 43
-0.468668 11.238220 0.300433 28
-1.203559 11.403187 -0.354340 18
-0.856134 11.673984 -1.288145 29
-1.199554 11.383592 -0.177820 39
-0.111454 11.347253 -0.067340 43
-0.839532 11.474072 -0.731881 36
-0.109233 11.314970 0.106649 54
-0.836576 11.460161 -0.553946 48
-0.825156 11.329967 -0.023792 50
-0.819411 11.277275 0.149991 61
-0.457250 11.330687 -0.045522 84
-0.453230 11.278171 0.128056 34
-1.190137 11.441956 -0.532439 24
-0.838065 11.669790 -1.105961 9
-1.177503 11.339025 -0.001990 27
-0.836647 11.677542 -0.925510 9
-1.167211 11.258351 0.171880 24
-0.816884 11.428673 -0.376091 61
-0.812716 11.397320 -0.199446 57
-0.451923 11.486448 -0.753444 41
-0.799809 11.242969 0.322713 30
-0.450234 11.492740 -0.576606 57
-0.794926 11.200958 0.494202 48
-0.442187 11.420546 -0.397116 30
-0.438446 11.373416 -0.220530 42
-0.431858 11.251699 0.300753 28
-1.165738 11.407115 -0.354340 17
-0.821026 11.728320 -1.293833 31
-1.160581 11.375570 -0.177633 35
-0.073746 11.335561 -0.067269 40
-0.802034 11.484757 -0.732389 44
-1.144897 11.240572 0.345207 11
-0.071939 11.351268 0.106988 47
-0.799124 11.470844 -0.554331 51
-0.787303 11.328650 -0.023784 40
-0.781457 11.271950 0.149884 53
-0.419229 11.320148 -0.045473 87
-1.159565 11.499715 -0.712994 1
-0.415975 11.283608 0.128101 29
-1.148586 11.410058 -0.530775 12
-0.799906 11.680451 -1.106714 8
-1.139895 11.342867 -0.001990 28
-0.798190 11.684231 -0.925826 10
-1.131467 11.278078 0.172123 27
-0.777894 11.415364 -0.375567 65
-0.774103 11.387981 -0.199237 67
-0.761169 11.225613 0.322141 30
-0.412264 11.498162 -0.576806 59
-0.757778 11.203532 0.494202 49
-1.506033 11.420289 -0.333832 17
-0.400605 11.430080 -0.397394 30
-0.397454 11.394931 -0.220918 44
-0.390616 11.253207 0.300753 29
-1.123529 11.407332 -0.354217 19
-0.774351 11.675709 -1.287708 29
-1.117705 11.367806 -0.177447 38
-0.032279 11.363754 -0.067435 44
-0.760989 11.503552 -0.733405 50
-1.101738 11.224797 0.344597 38
-0.030291 11.335456 0.106838 55
-0.756286 11.461736 -0.553753 47
-0.747352 11.355409 -0.023834 46
-0.740924 11.286712 0.150044 59
-0.377869 11.325606 -0.045489 81
-1.110075 11.428388 -0.708315 2
-0.373952 11.265070 0.127874 29
-1.104830 11.394306 -0.529850 14
-0.759407 11.719069 -1.110102 6
-1.097928 11.342987 -0.001989 32
-0.757675 11.722891 -0.928663 9
-1.092047 11.302054 0.172427 29
-0.736563 11.426118 -0.375829 64
-0.732359 11.390742 -0.199237 68
-0.719764 11.224337 0.322027 35
-0.369347 11.475638 -0.575605 76
-0.717220 11.214211 0.494553 55
-1.458575 11.382107 -0.332557 23
-0.360296 11.419423 -0.396977 25
-1.447793 11.355013 -0.155843 22
-0.357030 11.376263 -0.220530 38
-0.351076 11.246509 0.300539 30
-1.083696 11.411185 -0.354217 18
-0.734841 11.698181 -1.289896 25
-1.078399 11.375620 -0.177509 43
0.007370 11.359797 -0.067411 27
-0.720596 11.502153 -0.733151 60
-1.063695 11.240515 0.344963 34
0.009247 11.331493 0.106800 39
-0.715553 11.452341 -0.553175 53
-0.706256 11.333992 -0.023784 42
-0.701075 11.281242 0.149938 61
-0.337939 11.310862 -0.045425 90
-1.079564 11.531561 -0.714472 5
-0.335554 11.294290 0.128192 30
-1.065518 11.402062 -0.530035 26
-0.719093 11.729591 -1.110855 6
-1.056948 11.330811 -0.001986 27
-0.717602 11.737397 -0.929608 12
-1.051594 11.293839 0.172245 24
-0.696562 11.424621 -0.375698 62
-0.693706 11.409189 -0.199516 51
-0.680730 11.226772 0.322027 33
-0.329683 11.484839 -0.576005 39
-0.678716 11.224613 0.494905 57
-1.419001 11.387109 -0.332557 22
-0.320657 11.428603 -0.397255 31
-1.405687 11.340151 -0.155571 26
-0.317764 11.393431 -0.220840 42
-0.312037 11.255660 0.300753 25
-1.044221 11.418880 -0.354340 17
-0.695650 11.728458 -1.292958 23
-1.038321 11.375332 -0.177447 43
-0.680677 11.508584 -0.733405 71
-1.022638 11.224251 0.344352 34
-0.675808 11.458757 -0.553368 55
-1.016181 11.174058 0.515392 17
-0.665514 11.316422 -0.023742 51
-0.660287 11.259665 0.149619 56
-0.299088 11.335964 -0.045522 97
-1.050411 11.658524 -0.722106 5
-0.296023 11.291393 0.128146 29
-1.028216 11.433570 -0.531330 29
-0.680213 11.767811 -1.114242 6
-1.017032 11.330446 -0.001985 29
-0.672496 11.668174 -0.923934 5
-1.011451 11.289474 0.172123 27
-0.655990 11.415009 -0.375304 65
-0.652275 11.383591 -0.199027 55
-0.640853 11.217104 0.321683 33
-0.638394 11.206966 0.494026 48
-1.042580 11.725155 -1.272549 21
-1.376841 11.372146 -0.331978 21
-0.280565 11.421660 -0.396977 31
-1.034127 11.716140 -1.089029 3
-1.362747 11.317192 -0.155190 26
-0.277406 11.370481 -0.220375 41
-1.362411 11.330365 0.019918 11
-1.003305 11.410507 -0.353970 17
-0.657586 11.782423 -1.298647 26
-0.998257 11.374903 -0.177385 41
-0.640279 11.506904 -0.733151 65
-0.984498 11.239701 0.344719 34
-0.635141 11.449080 -0.552790 56
-0.977170 11.177537 0.515392 27
-0.626008 11.318677 -0.023742 46
-0.621200 11.265894 0.149672 59
-0.258967 11.312945 -0.045425 90
-1.013497 11.705873 -0.724816 9
-0.256698 11.296356 0.128192 32
-0.990019 11.456994 -0.532254 32
-0.976444 11.321972 -0.001983 31
-0.627236 11.586833 -0.917314 9
-0.970666 11.276998 0.171880 28
-0.615925 11.413237 -0.375173 67
-0.612535 11.385798 -0.199027 62
-0.602123 11.227258 0.321912 38
-0.600124 11.225088 0.494729 15
-0.999615 11.704947 -1.269970 11
-1.339936 11.400708 -0.332673 24
-0.240556 11.414576 -0.396699 30
-0.989555 11.676020 -1.084972 5
-1.323264 11.321877 -0.155190 29
-0.238401 11.403367 -0.220995 39
-0.993248 11.743074 -0.908876 9
-1.323799 11.342996 0.019932 40
-0.963812 11.417924 -0.354093 19
-0.957534 11.366363 -0.177198 42
-0.600508 11.517042 -0.733659 66
-0.944238 11.231118 0.344352 39
-0.595767 11.463198 -0.553368 52
-0.938788 11.188846 0.515759 23
-0.586664 11.324790 -0.023750 47
-0.582027 11.271991 0.149725 61
-0.219159 11.301785 -0.045377 93
-0.973534 11.721282 -0.725554 7
-0.217246 11.301185 0.128237 32
-0.949924 11.460388 -0.532254 28
-0.938129 11.341266 -0.001986 33
-0.583239 11.521256 -0.911956 39
-0.934139 11.316200 0.172427 25
-0.576555 11.427302 -0.375567 79
-0.571842 11.371897 -0.198748 59
-0.562577 11.225306 0.321798 36
-0.956959 11.688561 -1.267820 9
-1.301778 11.421226 -0.333137 30
-0.202206 11.387332 -0.395727 5
-0.948245 11.647478 -1.082022 5
-1.288870 11.354021 -0.155571 26
-0.200093 11.376105 -0.220453 34
-0.950749 11.702579 -0.905492 9
-1.284825 11.335400 0.019911 40
-0.924974 11.409101 -0.353723 16
-0.919514 11.365489 -0.177136 42
-0.561924 11.510996 -0.733151 61
-0.905702 11.218246 0.343864 47
-0.557751 11.465111 -0.553368 50
-0.902321 11.199863 0.516126 27
-0.548525 11.314687 -0.023725 48
-0.544452 11.269864 0.149672 54
-0.181873 11.314447 -0.045425 93
-0.915624 11.485659 -0.710777 11
-0.179387 11.277847 0.127965 32
-0.911915 11.463475 -0.532254 35
-0.899249 11.328364 -0.001983 33
-0.545029 11.523128 -0.911956 12
-0.894397 11.291327 0.172002 26
-0.538281 11.421165 -0.375304 83
-0.879286 11.124331 0.684470 2
-0.535066 11.393705 -0.199097 61
-0.525910 11.239092 0.322141 46
-0.917259 11.679777 -1.266530 8
-1.261259 11.401635 -0.332442 31
-0.906963 11.642776 -1.081284 6
-1.248792 11.354475 -0.155517 28
-0.160550 11.388731 -0.220685 33
-0.906185 11.658112 -0.901802 9
-1.240883 11.300055 0.019841 34
-0.885453 11.416247 -0.353846 20
-0.880144 11.372617 -0.177198 47
-0.521197 11.500924 -0.732389 54
-0.867153 11.229313 0.344108 48
-0.517726 11.466988 -0.553368 51
-0.862607 11.194977 0.515759 34
-0.509206 11.320529 -0.023734 47
-0.505109 11.271695 0.149672 58
-0.142377 11.315013 -0.045425 100
-0.874919 11.480824 -0.710285 26
-1.220582 11.272451 0.193952 40
-0.140118 11.286404 0.128056 33
-0.871288 11.458620 -0.531884 35
-0.860003 11.335423 -0.001984 31
-0.855280 11.298368 0.172063 28
-0.498585 11.426968 -0.375435 79
-0.494076 11.367535 -0.198608 60
-0.486157 11.228875 0.321798 46
-1.229075 11.458940 -0.511239 26
-0.874103 11.651182 -1.263091 13
-1.222730 11.417895 -0.332789 38
-0.865966 11.641903 -1.080915 6
-1.211637 11.382634 -0.155843 26
-0.120762 11.389222 -0.220685 31
-0.866631 11.677115 -0.903032 7
-1.203089 11.320231 0.019869 38
-0.844403 11.403321 -0.353352 20
-0.839564 11.363653 -0.177012 44
-0.481411 11.510649 -0.732897 56
-0.827684 11.228282 0.343986 48
-0.478078 11.476707 -0.553753 47
-0.822400 11.181976 0.515025 39
-1.571060 11.396006 -0.311283 5
-0.470087 11.330228 -0.023750 40
-0.465519 11.265394 0.149566 61
-0.102993 11.311440 -0.045409 84
-0.834412 11.475833 -0.709792 28
-1.181376 11.276628 0.193952 46
-0.100998 11.298821 0.128192 34
-0.831458 11.461579 -0.531884 38
-0.820910 11.342332 -0.001985 38
-0.815183 11.289302 0.171880 27
-0.458447 11.416645 -0.375042 86
-0.454486 11.365184 -0.198539 63
-0.447387 11.234488 0.321912 52
-1.188932 11.459157 -0.511062 49
-0.836567 11.693808 -1.267390 9
-1.181102 11.402178 -0.332210 39
-0.825323 11.644855 -1.080915 6
-1.169440 11.362923 -0.155517 29
-0.826147 11.684048 -0.903340 9
-1.162749 11.316404 0.019855 37
-0.804874 11.410187 -0.353476 16
-0.800454 11.374494 -0.177136 43
-0.441381 11.516249 -0.733151 41
-0.787645 11.219137 0.343619 46
-0.437557 11.466329 -0.553175 50
-0.783641 11.188765 0.515208 33
-1.523288 11.341975 -0.309660 22
-0.430231 11.323805 -0.023734 45
-0.426646 11.278940 0.149725 63
-0.063486 11.307731 -0.045393 87
-0.793797 11.470710 -0.709300 32
-1.139589 11.256808 0.193542 46
-0.061535 11.295106 0.128146 30
-0.790619 11.452453 -0.531330 35
-1.135675 11.236802 0.366769 5
-0.781313 11.345128 -0.001985 36
-0.773852 11.264148 0.171455 32
-0.418739 11.422172 -0.375173 81
-0.414957 11.370698 -0.198608 60
-0.408604 11.247969 0.322255 45
-1.146932 11.443357 -0.510176 32
-0.794123 11.672851 -1.264811 9
-1.142090 11.414188 -0.332442 33
-0.785741 11.663561 -1.082390 6
-1.128582 11.354995 -0.155353 30
-0.784555 11.674922 -0.902417 5
-1.122845 11.316413 0.019848 39
-0.765041 11.412927 -0.353476 17
-0.760745 11.377219 -0.177136 42
-0.748744 11.225808 0.343742 47
-0.397944 11.479765 -0.553753 53
-0.744315 11.187445 0.515025 34
-1.485243 11.359118 -0.309985 26
-0.390425 11.317243 -0.023717 44
-0.386724 11.264372 0.149513 69
-1.129081 11.496078 -0.690326 13
-0.024040 11.319883 -0.045441 93
-0.754799 11.489346 -0.710285 33
-1.100289 11.260717 0.193542 50
-0.021990 11.235255 0.127466 8
-0.750637 11.455143 -0.531330 37
-1.094892 11.224782 0.366250 71
-0.741445 11.343795 -0.001984 35
-0.736870 11.302700 0.172002 30
-0.378733 11.419568 -0.375042 83
-1.469177 11.368678 -0.134054 6
-0.375396 11.376074 -0.198678 68
-0.369208 11.245330 0.322141 41
-1.109673 11.475133 -0.511416 23
-0.754653 11.695395 -1.266960 7
-1.103009 11.426064 -0.332673 32
-0.745617 11.674176 -1.083128 5
-1.090549 11.374783 -0.155571 32
-0.744864 11.693507 -0.903647 6
-1.083007 11.316277 0.019841 41
-0.724457 11.403557 -0.353105 17
-0.720256 11.367831 -0.176950 45
-0.708502 11.212395 0.343253 48
-0.357420 11.469106 -0.553175 46
-0.705436 11.193967 0.515208 38
-1.448029 11.384076 -0.310526 32
-0.350934 11.322538 -0.023725 48
-0.348002 11.289644 0.149831 70
-1.090685 11.519838 -0.691519 5
0.015710 11.319898 -0.045441 81
-0.713459 11.475986 -0.709300 39
-1.059241 11.248585 0.193268 49
-0.710129 11.453722 -0.531145 36
-1.056935 11.244482 0.366769 69
-0.700309 11.326370 -0.001981 36
-0.697081 11.305223 0.172002 29
-0.338503 11.420831 -0.375042 71
-1.422138 11.318224 -0.133399 29
-0.335522 11.385323 -0.198818 62
-0.329411 11.242566 0.322027 10
-1.068436 11.471020 -0.511062 39
-0.713107 11.694017 -1.266530 9
-1.061914 11.421926 -0.332442 28
-0.705822 11.692611 -1.084603 5
-1.048630 11.354624 -0.155244 29
-0.704281 11.700017 -0.903955 6
-1.044234 11.327954 0.019855 32
-0.685605 11.421980 -0.353599 19
-0.681287 11.382253 -0.177136 39
-0.670550 11.234755 0.343864 44
-0.317272 11.466290 -0.552983 19
-0.666357 11.196362 0.515208 38
-1.408283 11.389061 -0.310526 35
-0.311739 11.335690 -0.023750 42
-0.308373 11.282794 0.149725 58
-1.069678 11.734324 -0.704166 8
-0.673630 11.482392 -0.709546 38
-1.021053 11.264163 0.193474 54
-0.669677 11.448153 -0.530775 36
-1.018038 11.252085 0.366899 92
-0.661001 11.332739 -0.001981 39
-0.656685 11.291616 0.171759 27
-0.298948 11.433932 -0.375435 79
-1.061728 11.801750 -1.257971 9
-1.386015 11.350911 -0.133726 34
-0.295570 11.378428 -0.198678 62
-1.028032 11.470699 -0.510885 44
-0.676391 11.767900 -1.274269 8
-1.022750 11.433528 -0.332673 34
-0.668631 11.722723 -1.087185 6
-1.009198 11.338120 -0.154972 31
-0.654837 11.515147 -0.889499 15
-1.004894 11.311434 0.019820 37
-0.647725 11.424191 -0.353599 18
-0.989130 11.155416 0.535976 22
-0.642636 11.368477 -0.176888 38
-0.633516 11.240909 0.343986 42
-0.628777 11.190531 0.514841 8
-1.040234 11.799861 -1.591066 4
-1.370030 11.389699 -0.310418 36
-0.273566 11.312668 -0.023700 46
-1.034823 11.761235 -0.887748 4
-0.271532 11.307745 0.150044 62
-1.030760 11.737806 -0.704166 10
-0.635770 11.488550 -0.709792 31
-0.982302 11.251550 0.193200 49
-0.631270 11.442331 -0.530405 38
-0.980025 11.247433 0.366639 83
-0.623636 11.338862 -0.001982 35
-0.619237 11.293733 0.171759 30
-0.260757 11.422871 -0.375042 74
-1.016751 11.737838 -1.250792 14
-1.350724 11.375303 -0.133960 36
-0.258198 11.395339 -0.198957 57
-1.014584 11.735920 -1.067890 8
-1.340405 11.304735 0.041724 16
-0.990331 11.478026 -0.511062 43
-0.639084 11.801847 -1.277708 4
-0.984143 11.428889 -0.332442 39
-0.971916 11.369476 -0.155353 32
-0.613309 11.493470 -0.887653 25
-0.966712 11.330819 0.019848 40
-0.607610 11.422390 -0.353476 19
-0.953555 11.198612 0.537888 27
-0.602748 11.366656 -0.176825 44
-0.593684 11.231071 0.343619 49
-0.992430 11.724408 -1.580417 16
-1.329877 11.390431 -0.310310 40
-0.234515 11.329548 -0.023734 46
-0.988502 11.701173 -0.882949 5
-0.231952 11.296625 0.149884 62
-0.984894 11.681640 -0.700586 12
-0.595902 11.490686 -0.709792 34
-0.944591 11.270832 0.193474 47
-0.591595 11.444451 -0.530405 36
-0.938025 11.214907 0.365471 79
-0.584558 11.344950 -0.001983 36
-0.579526 11.283825 0.171577 29
-0.221403 11.431699 -0.375304 71
-0.972524 11.697680 -1.246147 15
-1.309084 11.360040 -0.133726 37
-0.218818 11.396163 -0.198957 63
-0.971715 11.711566 -1.065362 7
-1.301787 11.313273 0.041739 21
-0.951352 11.489342 -0.511416 47
-0.944048 11.424248 -0.332210 30
-0.931569 11.364827 -0.155244 30
-0.573186 11.495542 -0.887653 25
-0.926175 11.322165 0.019827 36
-0.567338 11.416455 -0.353228 19
-0.913808 11.193908 0.537506 26
-0.562672 11.360703 -0.176701 38
-0.554280 11.229082 0.343497 56
-1.294918 11.420477 -0.487756 3
-0.953422 11.751510 -1.583611 12
-1.290558 11.398977 -0.310418 38
-0.194966 11.330297 -0.023734 51
-0.945076 11.672746 -0.880550 5
-0.192246 11.281369 0.149672 66
-0.931570 11.529790 -0.691280 33
-0.555982 11.496684 -0.710039 26
-0.904283 11.262101 0.193268 43
-0.552027 11.454429 -0.530775 39
-0.898233 11.210143 0.365211 87
-0.543802 11.322948 -0.001979 38
-0.541473 11.313745 0.172002 33
-0.930107 11.681179 -1.244035 22
-1.271643 11.384416 -0.133960 43
-0.178911 11.388860 -0.198818 71
-0.927989 11.679146 -1.062112 7
-1.259629 11.293897 0.041651 18
-0.909662 11.472675 -0.510530 47
-0.904479 11.431459 -0.332326 36
-0.891580 11.364022 -0.155190 33
-0.533240 11.501455 -0.887961 19
-0.886336 11.321341 0.019820 39
-0.528037 11.430347 -0.353599 17
-0.873173 11.177114 0.536550 24
-0.522828 11.358602 -0.176639 39
-0.514713 11.222960 0.343253 52
-1.257663 11.448763 -0.488773 31
-0.914543 11.782434 -1.587339 9
-1.249889 11.395463 -0.310201 35
-0.155469 11.334909 -0.023742 51
-0.903401 11.664043 -0.879650 6
-1.233856 11.266587 0.215644 12
-0.152865 11.281972 0.149672 70
-0.889472 11.509086 -0.689848 35
-0.514237 11.462660 -0.707822 27
-0.864659 11.261201 0.193200 46
-0.511149 11.436328 -0.529850 37
-0.860319 11.229155 0.365730 93
-0.505342 11.348754 -0.001983 35
-0.501623 11.307574 0.171880 34
-0.888722 11.676422 -1.243191 12
-1.229745 11.368902 -0.133726 44
-0.139008 11.377418 -0.198608 64
-0.886310 11.670398 -1.061029 10
-1.221057 11.306178 0.041680 22
-0.869911 11.479765 -0.510707 46
-0.863968 11.426573 -0.332094 32
-0.849135 11.355240 -0.155027 30
-0.844603 11.320519 0.019813 42
-0.484976 11.404243 -0.352734 17
-0.832819 11.188206 0.536932 24
-0.481517 11.368434 -0.176763 41
-0.473520 11.224774 0.343253 62
-1.215637 11.453301 -0.488773 45
-1.207174 11.392025 -0.309985 33
-0.113666 11.323404 -0.023717 50
-0.858449 11.639441 -0.877551 5
-1.189051 11.239232 0.215035 26
-0.111337 11.282458 0.149672 66
-0.845931 11.496353 -0.688894 36
-0.473232 11.496392 -0.709792 30
-0.823664 11.272294 0.193337 43
-0.469050 11.442130 -0.530035 36
-0.819400 11.240232 0.365990 100
-1.558797 11.370019 -0.288493 27
-0.463199 11.346549 -0.001982 39
-0.459755 11.309354 0.171880 30
-0.844296 11.663766 -1.241502 15
-1.187189 11.369404 -0.133679 43
-0.096803 11.377855 -0.198608 75
-0.843013 11.673605 -1.061029 9
-1.180767 11.326544 0.041739 25
-0.826706 11.474945 -0.510353 49
-0.820347 11.413753 -0.331630 33
-0.809208 11.354146 -0.154972 33
-0.805650 11.331378 0.019827 34
-0.445944 11.425842 -0.353352 17
-0.793760 11.191044 0.536932 27
-0.441675 11.366049 -0.176701 39
-0.434027 11.218369 0.343009 58
-1.171162 11.413744 -0.486908 38
-0.832335 11.820320 -1.591599 5
-1.167809 11.400147 -0.310093 40
-0.074140 11.323732 -0.023717 48
-0.818933 11.658282 -0.878751 5
-1.150219 11.247293 0.215111 27
-0.072106 11.306775 0.149991 39
-0.807192 11.519152 -0.690087 40
-0.433249 11.501964 -0.710039 26
-0.784312 11.275101 0.193337 43
-0.429555 11.455677 -0.530590 35
-0.778776 11.223082 0.365341 91
-1.516982 11.359536 -0.288091 28
-0.422993 11.332108 -0.001979 36
-0.419384 11.286909 0.171516 29
-1.165257 11.529902 -0.670226 6
-0.804670 11.682515 -1.243191 14
-1.148700 11.385417 -0.133820 33
-0.801713 11.668528 -1.060306 10
-1.139620 11.314677 0.041680 26
-0.785826 11.465800 -0.509821 42
-0.781318 11.428514 -0.331978 34
-0.768488 11.340940 -0.154754 35
-0.764472 11.310176 0.019785 38
-0.405774 11.419338 -0.353105 19
-0.754960 11.197733 0.537123 26
-0.401574 11.355531 -0.176515 40
-0.395849 11.247785 0.343864 68
-1.130526 11.409809 -0.486568 31
-0.788422 11.783598 -1.586274 13
-1.127614 11.400175 -0.309985 35
-0.034612 11.323922 -0.023717 46
-0.778498 11.665050 -0.879051 5
-1.109379 11.235319 0.214807 33
-0.766447 11.513930 -0.689610 41
-1.104662 11.207029 0.387351 23
-0.743895 11.261806 0.193063 47
-0.389293 11.449120 -0.530220 35
-0.739070 11.217753 0.365081 100
-1.477836 11.368728 -0.288192 27
-0.383298 11.329517 -0.001979 35
-0.380117 11.292301 0.171577 36
-1.121902 11.502104 -0.668378 21
-0.764664 11.697161 -1.244458 17
-1.106625 11.365472 -0.133539 33
-0.762273 11.691132 -1.062112 7
-1.100117 11.318586 0.041680 27
-0.745798 11.468473 -0.509821 41
-0.740385 11.415212 -0.331515 33
-0.731152 11.379478 -0.155244 34
-0.726234 11.332737 0.019820 35
-0.365514 11.408697 -0.352734 19
-0.714836 11.184352 0.536359 25
-1.452874 11.350849 -0.111850 6
-0.362578 11.376850 -0.176825 35
-0.355852 11.225121 0.343131 24
-1.093761 11.445509 -0.487925 32
-0.746331 11.770450 -1.584144 11
-1.087482 11.400057 -0.309877 35
0.004852 11.331974 -0.023734 51
-0.738349 11.675653 -0.879650 5
-1.070601 11.243098 0.214883 33
-0.726592 11.520515 -0.689848 41
-1.066001 11.214788 0.387489 30
-0.704477 11.260334 0.192995 45
-0.349863 11.462385 -0.530775 30
-0.700822 11.232225 0.365471 99
-1.439817 11.385697 -0.288493 30
-0.344302 11.342775 -0.001981 31
-1.095524 11.629209 -0.855727 11
-0.341268 11.305547 0.171759 29
-0.725785 11.727534 -1.247414 16
-1.069044 11.389155 -0.133773 34
-0.723434 11.721538 -1.064640 6
-1.059731 11.310387 0.041636 28
-0.705788 11.467002 -0.509644 44
-0.701316 11.425691 -0.331746 32
-0.692925 11.373857 -0.155135 34
-0.688649 11.335083 0.019820 39
-0.327564 11.405850 -0.352611 18
-0.678710 11.202614 0.537123 15
-1.414731 11.351636 -0.111811 33
-0.324392 11.361999 -0.176577 40
-1.055800 11.449073 -0.487925 41
-0.707771 11.780774 -1.585209 8
-1.049305 11.399619 -0.309769 31
0.042460 11.339895 -0.023750 19
-0.688654 11.494884 -0.865854 14
-1.032945 11.242604 0.214807 38
-0.688623 11.526847 -0.690087 42
-1.031361 11.246128 0.388451 29
-0.667369 11.266601 0.193063 44
-0.311850 11.463482 -0.530775 27
-0.663335 11.230496 0.365341 99
-1.067884 11.731175 -1.477677 5
-1.400099 11.374534 -0.288091 38
-0.306254 11.327861 -0.001978 31
-1.058759 11.652642 -0.857188 4
-0.303346 11.290624 0.171516 28
-1.065077 11.744098 -0.682004 1
-0.688054 11.749730 -1.249525 17
-1.029467 11.372720 -0.133539 34
-0.686650 11.759665 -1.067890 8
-1.022219 11.313838 0.041636 26
-0.668455 11.481247 -0.510176 41
-1.008295 11.180725 0.558868 2
-0.663424 11.427954 -0.331746 32
-0.652990 11.372212 -0.155081 33
-0.647935 11.317451 0.019785 41
-0.288253 11.426908 -0.353228 17
-1.048621 11.777366 -1.232316 6
-1.375097 11.356505 -0.111811 36
-0.284729 11.363062 -0.176577 38
-1.015476 11.448709 -0.487756 46
-1.009154 11.399229 -0.309660 33
-0.647627 11.481288 -0.864655 23
-0.994399 11.254108 0.214959 33
-0.647934 11.521208 -0.689610 44
-0.989992 11.225767 0.387626 30
-0.628483 11.276848 0.193200 43
-0.625460 11.256694 0.366120 96
-1.021738 11.675525 -1.470209 14
-1.361335 11.387293 -0.288292 41
-0.266993 11.340858 -0.001980 33
-1.030920 11.803312 -0.868002 9
-0.263933 11.291614 0.171516 30
-1.004309 11.520984 -0.668840 56
-0.649003 11.787806 -1.253325 12
-0.989416 11.372260 -0.133492 36
-0.983412 11.325308 0.041666 28
-0.627064 11.459570 -0.509112 44
-0.969261 11.184176 0.558868 25
-0.623529 11.430200 -0.331746 29
-0.610845 11.366544 -0.154972 34
-0.607074 11.331733 0.019806 38
-0.245759 11.399908 -0.352364 16
-0.999012 11.705813 -1.224438 6
-1.332059 11.349552 -0.111694 37
-0.243255 11.372026 -0.176701 35
-0.996842 11.703487 -1.042092 7
-1.326944 11.322330 0.063669 16
-0.973862 11.456334 -0.487925 50
-0.966718 11.394880 -0.309444 31
-0.605580 11.483582 -0.864655 25
-0.952170 11.245720 0.214731 34
-0.604705 11.503565 -0.688417 38
-0.949227 11.233299 0.387764 31
-0.586815 11.271083 0.193063 46
-1.322306 11.398143 -0.464879 3
-0.582635 11.226966 0.365081 96
-0.977379 11.659408 -1.467720 15
-1.319226 11.388223 -0.288192 45
-0.225372 11.333759 -0.001979 37
-0.982775 11.747371 -0.863618 12
-0.223057 11.312496 0.171820 29
-0.958873 11.484783 -0.666531 35
-0.946530 11.359856 -0.133305 36
-0.941374 11.320851 0.041636 27
-0.586028 11.477747 -0.509821 46
-0.929405 11.199585 0.559465 30
-0.582203 11.440386 -0.331978 29
-0.571967 11.384584 -0.155190 31
-0.567115 11.325793 0.019792 41
-0.206686 11.440671 -0.353599 18
-0.957821 11.705264 -1.224024 5
-1.290171 11.334262 -0.111498 37
-0.203415 11.364808 -0.176577 37
-0.955659 11.702925 -1.041738 6
-1.286962 11.322919 0.063647 36
-0.933216 11.451697 -0.487586 55
-0.928233 11.414127 -0.309877 31
-0.565295 11.481643 -0.864355 24
-0.913556 11.256947 0.214883 30
-0.566112 11.537511 -0.690326 36
-0.910009 11.236544 0.387764 28
-0.547662 11.277058 0.193132 48
-1.286085 11.434463 -0.466174 38
-0.543442 11.228930 0.365081 100
-0.935404 11.646924 -1.465728 17
-1.279911 11.396732 -0.288292 41
-0.185809 11.334476 -0.001979 40
-0.937939 11.703011 -0.860111 13
-0.183308 11.297211 0.171577 28
-0.917186 11.468157 -0.665376 40
-0.907507 11.371064 -0.133399 37
-0.901534 11.320082 0.041622 25
-0.545200 11.463757 -0.509112 47
-0.889356 11.190814 0.558868 35
-0.541697 11.430367 -0.331630 30
-0.533836 11.378428 -0.155081 32
-0.529928 11.335603 0.019806 39
-0.918065 11.696477 -1.222780 6
-1.253896 11.350405 -0.111616 42
-0.165726 11.365420 -0.176577 39
-0.914979 11.682196 -1.039617 8
-1.248530 11.319173 0.063602 34
-0.894925 11.450745 -0.487416 57
-0.889445 11.405183 -0.309552 33
-0.527035 11.479469 -0.864055 26
-0.877153 11.271876 0.215111 34
-0.526207 11.503427 -0.688178 41
-0.870576 11.211600 0.386801 35
-0.509901 11.270822 0.192995 42
-1.243824 11.398932 -0.464555 33
-0.506383 11.234665 0.365211 100
-0.896776 11.649961 -1.465728 23
-1.241678 11.396938 -0.288192 39
-0.148274 11.339030 -0.001979 27
-0.898819 11.702079 -0.859819 13
-1.226918 11.278975 0.237655 6
-0.145948 11.305755 0.171698 29
-0.878846 11.467154 -0.665145 33
-0.868880 11.362047 -0.133258 36
-0.863990 11.323009 0.041622 29
-0.506829 11.457517 -0.508757 40
-0.851634 11.185735 0.558470 33
-0.503085 11.416122 -0.331167 29
-0.493744 11.372231 -0.154972 33
-0.489823 11.325396 0.019785 45
-0.876036 11.683742 -1.221121 6
-1.211711 11.330851 -0.111381 36
-0.125967 11.357931 -0.176453 45
-0.872415 11.661479 -1.037496 8
-1.205617 11.291643 0.063424 34
-0.855259 11.457783 -0.487586 51
-0.849056 11.400242 -0.309336 32
-0.835460 11.242961 0.214503 40
-0.487269 11.533116 -0.689848 42
-0.833247 11.238488 0.387626 34
-0.469621 11.248554 0.192584 41
-1.204094 11.403198 -0.464555 28
-0.466574 11.220384 0.364692 96
-0.859381 11.696556 -1.471205 4
-1.201545 11.397219 -0.288091 43
-0.108738 11.335478 -0.001979 32
-0.858345 11.709118 -0.860111 12
-1.184693 11.255341 0.237068 28
-0.106312 11.278198 0.171273 12
-0.840073 11.486075 -0.666069 38
-0.828734 11.357025 -0.133165 36
-0.825152 11.333926 0.041651 25
-0.468092 11.487161 -0.509998 42
-0.811545 11.172692 0.557675 36
-0.464173 11.437779 -0.331746 28
-0.454045 11.373886 -0.154972 30
-0.450763 11.339026 0.019806 40
-0.836665 11.706571 -1.223194 5
-1.172563 11.338989 -0.111420 35
-0.086168 11.338305 -0.176142 42
-0.831987 11.668427 -1.037850 11
-1.166605 11.299762 0.063446 38
-0.814124 11.444754 -0.486908 53
-0.809822 11.411113 -0.309552 32
-0.796775 11.253787 0.214655 35
-0.446853 11.530757 -0.689610 32
-0.792886 11.225378 0.387076 33
-1.533992 11.402175 -0.267110 53
-0.430812 11.262115 0.192789 46
-1.165499 11.419260 -0.465041 33
-0.428013 11.237924 0.365211 89
-0.824918 11.790546 -1.482656 16
-1.161754 11.401343 -0.288091 41
-0.069291 11.355788 -0.001982 31
-0.817745 11.716022 -0.860403 15
-1.145398 11.259408 0.237068 31
-0.799974 11.488937 -0.666069 41
-0.789917 11.371819 -0.133305 37
-0.785031 11.328756 0.041622 22
-0.427248 11.468758 -0.509112 44
-0.772540 11.175457 0.557675 33
-0.423801 11.427343 -0.331399 29
-0.414049 11.367408 -0.154863 34
-0.410890 11.332537 0.019792 37
-1.149846 11.492584 -0.645743 8
-0.796605 11.721328 -1.224438 6
-1.134168 11.354954 -0.111537 34
-0.792329 11.687161 -1.039264 9
-1.127949 11.311725 0.063491 38
-0.773630 11.439550 -0.486568 46
-0.769716 11.409881 -0.309444 32
-0.757756 11.260490 0.214731 32
-0.405757 11.508305 -0.688178 30
-0.753430 11.224089 0.386939 31
-1.490027 11.375739 -0.266367 46
-0.391636 11.267547 0.192858 47
-1.124456 11.411326 -0.464555 29
-0.387954 11.215376 0.364432 21
-0.777703 11.702271 -1.471205 16
-1.122731 11.413288 -0.288292 41
-0.029621 11.343961 -0.001980 28
-0.776052 11.706863 -0.859526 14
-1.104915 11.251397 0.236817 29
-0.759601 11.487676 -0.665838 39
-1.102168 11.242656 0.410277 16
-0.749954 11.370516 -0.133258 35
-0.744431 11.315463 0.041563 23
-0.386942 11.462192 -0.508757 41
-0.733002 11.170113 0.557277 30
-0.383641 11.420760 -0.331167 28
-0.373732 11.348796 -0.154591 30
-1.115183 11.532769 -0.826470 5
-0.371475 11.337899 0.019799 41
-1.108586 11.484601 -0.645073 8
-0.755179 11.716096 -1.223609 6
-1.094146 11.354861 -0.111498 31
-0.753826 11.725641 -1.042445 6
-1.088453 11.315594 0.063491 39
-0.734449 11.454147 -0.487077 49
-0.729352 11.404519 -0.309228 34
-0.717396 11.247104 0.214427 36
-0.714207 11.226652 0.386939 30
-1.450270 11.380877 -0.266367 42
-0.352486 11.276842 0.192995 48
-1.084927 11.419167 -0.464717 32
-0.737769 11.720763 -1.473196 15
-1.081676 11.405202 -0.287991 39
0.010069 11.351995 -0.001981 31
-0.727097 11.582100 -0.850174 19
-1.067058 11.271119 0.237152 31
-0.719652 11.494248 -0.666069 41
-1.062824 11.246444 0.410277 33
-0.710156 11.373071 -0.133258 33
-0.705563 11.329976 0.041607 22
-0.347412 11.483448 -0.509644 42
-1.420491 11.282580 -0.089315 12
-0.343282 11.410045 -0.330819 33
-0.333997 11.346033 -0.154536 33
-1.073808 11.524674 -0.825616 9
-0.331779 11.335128 0.019792 35
-0.714036 11.714689 -1.223194 6
-1.054874 11.362594 -0.111537 38
-0.714583 11.756041 -1.044919 5
-1.047840 11.307376 0.063424 47
-0.694945 11.464619 -0.487416 49
-0.690503 11.422960 -0.309660 31
-0.678854 11.261516 0.214655 35
-0.674534 11.221096 0.386664 29
-1.078708 11.725828 -1.414548 0
-1.411026 11.389838 -0.266460 41
-0.312899 11.270008 0.192858 50
-1.043968 11.410944 -0.464231 35
-0.700149 11.778733 -1.480166 15
-1.041858 11.408909 -0.287991 39
0.049730 11.359891 -0.001983 23
-0.682415 11.512885 -0.844914 44
-1.026982 11.266809 0.236984 33
-0.680232 11.508650 -0.666762 40
-1.021387 11.226199 0.409406 35
-0.670923 11.383466 -0.133352 36
-0.665775 11.328377 0.041592 23
-0.307111 11.476601 -0.509289 40
-1.063859 11.758375 -1.207579 2
-1.383528 11.307321 -0.089472 30
-0.303770 11.423164 -0.331167 30
-0.294701 11.359125 -0.154700 33
-1.044262 11.647570 -0.834154 8
-0.292210 11.336217 0.019792 38
-1.026247 11.468193 -0.643734 24
-0.675193 11.752857 -1.226926 6
-1.014493 11.358239 -0.111459 33
-0.676049 11.802219 -1.048808 7
-1.009074 11.318933 0.063468 48
-0.655150 11.470965 -0.487586 52
-0.649716 11.409332 -0.309228 33
-0.639540 11.263817 0.214655 32
-0.636491 11.243339 0.387351 29
-1.038471 11.737434 -1.415502 11
-1.372215 11.402635 -0.266646 43
-0.273266 11.259037 0.192653 57
-1.004480 11.418500 -0.464393 40
-0.660359 11.804882 -1.483154 14
-0.999229 11.380609 -0.287187 33
-0.642445 11.519180 -0.845206 46
-0.987996 11.274310 0.237068 27
-0.638947 11.491018 -0.665607 45
-0.979060 11.193857 0.408100 39
-0.629855 11.361777 -0.133071 41
-0.626007 11.326637 0.041578 23
-1.018327 11.710482 -1.202288 12
-1.340274 11.280306 -0.089220 21
-0.263894 11.424155 -0.331167 34
-1.020257 11.755457 -1.024035 3
-0.254840 11.348087 -0.154536 32
-1.013932 11.770392 -0.842692 11
-0.252675 11.337168 0.019792 47
-0.985905 11.467723 -0.643510 34
-0.974169 11.353740 -0.111381 28
-0.970232 11.330358 0.063513 43
-0.614003 11.453230 -0.486738 48
-0.955812 11.184236 0.580420 49
-0.609618 11.407541 -0.309119 33
-0.600353 11.269979 0.214731 37
-1.339637 11.453338 -0.445008 42
-0.595869 11.221545 0.386526 32
-0.993355 11.693510 -1.409777 10
-1.329983 11.387507 -0.266181 45
-0.233794 11.259926 0.192653 54
-0.964445 11.421951 -0.464393 34
-0.619987 11.826942 -1.485643 9
-0.961319 11.407951 -0.287790 36
-0.601805 11.517381 -0.844914 55
-0.945740 11.245828 0.236398 34
-0.599213 11.505155 -0.666300 44
-0.943088 11.237060 0.409551 34
-0.591173 11.387886 -0.133352 39
-0.585562 11.316785 0.041534 23
-0.976133 11.702095 -1.201067 11
-1.301501 11.292898 -0.089283 24
-0.223603 11.421016 -0.331051 35
-0.973915 11.699406 -1.018848 3
-1.300507 11.301096 0.085375 28
-0.215530 11.364903 -0.154754 32
-0.968569 11.722168 -0.838992 10
-0.212949 11.329982 0.019778 40
-0.942915 11.435272 -0.641501 37
-0.934204 11.353085 -0.111342 37
-0.929693 11.321715 0.063446 43
-0.573020 11.435347 -0.485890 53
-0.914809 11.163616 0.579180 40
-0.569794 11.409599 -0.309119 30
-0.560414 11.260022 0.214503 34
-1.291991 11.390428 -0.442386 42
-0.556299 11.215571 0.386251 27
-0.949307 11.657323 -1.405006 11
-1.291125 11.400027 -0.266367 45
-0.194489 11.260673 0.192653 52
-0.924569 11.425248 -0.464393 34
-0.921170 11.407251 -0.287689 36
-0.561986 11.527380 -0.845498 72
-0.907764 11.265005 0.236733 32
-0.558274 11.491222 -0.665376 42
-0.903216 11.232314 0.409261 39
-0.550065 11.361915 -0.133025 37
-0.546055 11.318760 0.041534 23
-0.933695 11.685597 -1.199032 10
-1.264738 11.321223 -0.089472 30
-0.183799 11.425724 -0.331167 37
-0.931487 11.682872 -1.017118 3
-1.261051 11.305567 0.085375 38
-0.175857 11.365586 -0.154754 31
-0.924813 11.689681 -0.836431 10
-0.173521 11.338655 0.019792 38
-0.904878 11.462382 -0.642840 35
-0.895196 11.364251 -0.111420 30
-0.890167 11.324892 0.063446 42
-0.534030 11.457238 -0.486738 48
-0.877397 11.186654 0.580213 49
-0.530335 11.419508 -0.309336 30
-0.519997 11.237940 0.214046 39
-1.250040 11.375003 -0.441614 48
-0.516962 11.213451 0.386114 30
-0.907993 11.652647 -1.404052 11
-1.249579 11.388564 -0.265996 45
-0.155070 11.253285 0.192516 55
-0.883757 11.416451 -0.463907 38
-0.881037 11.406410 -0.287589 36
-0.520843 11.509345 -0.844037 51
-0.868436 11.268106 0.236733 33
-0.518698 11.505069 -0.666069 45
-0.864309 11.239384 0.409406 41
-0.510580 11.367762 -0.133071 34
-0.506542 11.320597 0.041534 26
-0.891686 11.672915 -1.197404 12
-1.225211 11.325569 -0.089472 40
-0.890398 11.682078 -1.016773 3
-1.220291 11.297970 0.085285 32
-0.136009 11.354134 -0.154591 30
-0.882167 11.668969 -0.834723 9
-0.134016 11.347192 0.019806 40
-0.865744 11.477420 -0.643510 38
-0.855215 11.363319 -0.111381 26
-0.851234 11.335907 0.063491 43
-0.493706 11.451046 -0.486399 48
-0.838657 11.193630 0.580420 53
-0.489125 11.389329 -0.308470 28
-0.481146 11.247676 0.214198 38
-1.217129 11.442886 -0.444082 48
-0.478377 11.227167 0.386526 34
-0.869427 11.683465 -1.407391 13
-1.210714 11.400805 -0.266181 44
-0.844870 11.431418 -0.464393 32
-0.840726 11.401433 -0.287388 31
-0.479776 11.487174 -0.842283 8
-0.828912 11.267072 0.236649 36
-0.477661 11.482864 -0.664683 46
-0.823142 11.214417 0.408390 38
-0.471359 11.377461 -0.133165 36
-0.467001 11.318294 0.041519 22
-0.851673 11.683882 -1.198218 15
-1.187074 11.341695 -0.089566 40
-0.849207 11.677155 -1.016081 3
-1.179349 11.286230 0.085165 35
-0.096443 11.362537 -0.154700 31
-0.842864 11.691875 -0.836146 8
-1.167825 11.244564 0.258521 27
-0.094240 11.327591 0.019771 33
-0.825675 11.480371 -0.643510 39
-0.814686 11.354266 -0.111264 31
-0.810231 11.318861 0.063379 38
-0.454047 11.460686 -0.486738 46
-0.797871 11.172583 0.579180 36
-0.449996 11.406949 -0.308903 30
-0.442195 11.257279 0.214351 37
-1.177587 11.451041 -0.444237 45
-0.438871 11.220779 0.386251 13
-0.844931 11.916196 -1.435062 18
-1.168051 11.377115 -0.265531 46
-0.804401 11.426324 -0.464069 36
-0.801202 11.408288 -0.287488 30
-0.789019 11.261918 0.236482 33
-0.438640 11.512395 -0.666300 40
-0.785663 11.241148 0.409261 38
-0.431490 11.375041 -0.133118 37
-0.427640 11.323852 0.041534 21
-0.811158 11.690754 -1.198625 16
-1.148282 11.353729 -0.089629 39
-0.807616 11.668120 -1.015043 4
-1.138339 11.274360 0.085045 35
-0.058866 11.382792 -0.154972 27
-0.805182 11.710527 -0.837285 9
-1.128131 11.224502 0.257973 26
-0.056776 11.347840 0.019806 38
-0.787054 11.475078 -0.643064 41
-0.776756 11.352915 -0.111225 30
-0.772147 11.313504 0.063334 35
-0.415605 11.450148 -0.486229 48
-0.760546 11.171182 0.578974 33
-0.412167 11.408379 -0.308903 28
-0.405006 11.262681 0.214427 38
-1.138421 11.442951 -0.443774 45
-0.789613 11.685149 -1.406914 11
-1.131898 11.396843 -0.265903 45
-0.765970 11.420953 -0.463745 33
-0.762032 11.390933 -0.286986 37
-0.750870 11.252501 0.236230 32
-0.400322 11.509795 -0.666069 39
-0.747055 11.223749 0.408535 36
-0.393628 11.372412 -0.133071 32
-1.135968 11.576420 -0.807270 8
-0.390500 11.337200 0.041578 23
-1.123803 11.472305 -0.622274 16
-0.770812 11.669556 -1.196183 15
-1.108679 11.337570 -0.089472 41
-0.770228 11.690617 -1.016773 3
-1.102500 11.293996 0.085165 36
-0.750217 11.498275 -0.821916 27
-1.090434 11.244297 0.258339 25
-0.017107 11.331970 0.019778 40
-0.746700 11.473772 -0.642840 40
-1.088437 11.243181 0.431964 4
-0.736850 11.351566 -0.111185 34
-0.733434 11.328105 0.063401 36
-0.375138 11.435551 -0.485551 44
-0.371739 11.389764 -0.308362 31
-0.365758 11.264024 0.214427 40
-1.098158 11.442869 -0.443620 45
-0.749673 11.699718 -1.408345 8
-1.092961 11.408678 -0.266089 43
-0.727011 11.435513 -0.464231 34
-0.723450 11.409475 -0.287388 39
-0.712282 11.263024 0.236398 30
-0.707075 11.210318 0.407954 37
-0.353913 11.365714 -0.132978 34
-1.089774 11.516729 -0.802839 12
-0.351424 11.346483 0.041607 26
-1.082503 11.460228 -0.621412 9
-0.732343 11.703930 -1.199439 12
-1.067868 11.325417 -0.089346 40
-0.732449 11.736965 -1.020577 3
-1.062987 11.293766 0.085135 36
-0.709830 11.496841 -0.821632 36
-1.051549 11.252016 0.258430 29
0.022457 11.335960 0.019785 36
-0.707381 11.488268 -0.643510 36
-1.042502 11.175276 0.429213 26
-0.698202 11.370039 -0.111342 29
-0.693154 11.318619 0.063334 44
-0.335921 11.460758 -0.486568 56
-0.332212 11.398986 -0.308578 28
-0.326090 11.253239 0.214198 45
-1.058576 11.450613 -0.443774 47
-0.710750 11.733977 -1.412162 9
-1.054233 11.424370 -0.266367 44
-0.686850 11.433992 -0.464069 34
-0.684097 11.419914 -0.287589 37
-0.672723 11.261450 0.236314 30
-0.669128 11.232669 0.408680 32
-1.073645 11.763096 -1.377141 2
-0.314900 11.390869 -0.133258 33
-1.058256 11.615838 -0.809486 19
-0.310826 11.311654 0.041475 25
-1.040684 11.444048 -0.620333 41
-0.691015 11.698470 -1.198625 10
-1.029051 11.337042 -0.089409 38
-0.694755 11.795144 -1.025419 3
-1.022836 11.289440 0.085075 36
-0.668534 11.479334 -0.820209 37
-1.010475 11.235704 0.257973 34
0.062027 11.335813 0.019785 27
-0.666812 11.482693 -0.643064 37
-1.004558 11.190790 0.429672 31
-0.658046 11.364420 -0.111264 32
-0.653410 11.316976 0.063312 41
-0.296016 11.465857 -0.486738 46
-1.046724 11.726256 -1.181316 5
-0.292317 11.396079 -0.308470 30
-0.286501 11.242314 0.213970 35
-1.015414 11.418406 -0.442386 45
-0.672728 11.787932 -1.418364 10
-1.011519 11.396113 -0.265624 45
-0.645579 11.412377 -0.463098 34
-0.643554 11.410255 -0.287287 39
-0.633634 11.267722 0.236398 27
-0.630586 11.246909 0.409116 35
-1.028758 11.723235 -1.372046 4
-0.275137 11.391899 -0.133258 38
-1.021184 11.659213 -0.812255 24
-0.271723 11.328666 0.041534 23
-1.000383 11.443631 -0.620118 39
-0.654370 11.776299 -1.206358 11
-0.988776 11.332595 -0.089346 36
-0.984811 11.308881 0.085195 40
-0.627672 11.465657 -0.819070 46
-0.970988 11.235171 0.257881 37
-0.626126 11.472984 -0.642394 39
-0.966914 11.210154 0.430283 31
-0.618176 11.362653 -0.111225 31
-0.614323 11.327176 0.063357 37
-0.255233 11.434857 -0.485381 12
-1.004040 11.710015 -1.179319 4
-0.252636 11.405026 -0.308687 28
-1.005183 11.746706 -1.000365 4
-0.247940 11.279233 0.214655 38
-0.977482 11.445786 -0.443311 41
-0.633767 11.833839 -1.423612 9
-0.971253 11.395602 -0.265531 43
-0.606136 11.426548 -0.463584 30
