# This PCD file was generated using the MATLAB® pcwrite function
# from Computer Vision Toolbox®.
# .PCD v.7 - Point Cloud Data file format
VERSION .7
FIELDS x y z intensity
SIZE 4 4 4 1
TYPE F F F U
COUNT 1 1 1 1
WIDTH 1495
HEIGHT 1
VIEWPOINT 0 0 0 1 0 0 0
POINTS 1495
DATA ascii
-4.456904 9.529127 -0.872287 30
-4.508235 9.643058 -0.390329 21
-4.537419 9.709693 -0.228244 17
-4.599747 9.847341 0.269421 30
-5.132834 9.391053 -0.351290 38
-5.142840 9.413082 -0.187229 3
-4.778503 9.449800 -0.694058 41
-4.791989 9.480387 -0.532545 42
-4.817678 9.546827 -0.371558 22
-4.521708 9.713830 -1.220783 16
-4.845099 9.605164 -0.208442 25
-4.448090 9.559864 -0.711425 47
-4.474156 9.620096 -0.552314 50
-4.540912 9.767907 -0.063922 23
-4.564438 9.822816 0.102088 49
-5.089904 9.356821 -0.513498 54
-4.709989 9.356787 -1.010509 11
-4.718427 9.377458 -0.850152 101
-4.393857 9.476471 -1.027876 35
-4.842264 9.635625 -0.043290 95
-4.420181 9.537430 -0.871626 28
-4.476136 9.662405 -0.390475 24
-4.515159 9.750922 -0.228840 17
-4.575309 9.885163 0.270015 29
-5.107534 9.423030 -0.351815 48
-5.128885 9.466206 -0.187928 37
-4.741783 9.459352 -0.693535 40
-4.762308 9.504269 -0.532945 47
-4.778959 9.552861 -0.371142 20
-4.491102 9.736773 -1.221689 21
-4.806176 9.611286 -0.208210 24
-4.419706 9.586205 -0.712232 41
-4.437205 9.628400 -0.551898 47
-4.500094 9.769167 -0.063827 24
-4.531795 9.842322 0.102125 49
-5.057212 9.374531 -0.513498 47
-4.693299 9.405233 -1.013966 100
-4.708799 9.440251 -0.854349 101
-4.355765 9.480899 -1.026701 36
-4.805032 9.645308 -0.043258 88
-4.386862 9.552801 -0.871626 30
-4.440713 9.674338 -0.390329 23
-4.467752 9.737545 -0.228159 19
-4.540776 9.901073 0.270015 29
-5.072717 9.437280 -0.351684 57
-5.101490 9.494620 -0.188137 74
-4.715839 9.490143 -0.694581 43
-4.730880 9.524412 -0.533145 47
-4.745478 9.565075 -0.371003 21
-4.458789 9.751613 -1.221689 21
-4.783161 9.645086 -0.208597 25
-4.389552 9.604438 -0.712502 43
-4.411891 9.657595 -0.552730 45
-4.479304 9.809505 -0.063993 23
-4.499132 9.857296 0.102125 47
-5.022326 9.384204 -0.513113 47
-4.649723 9.395766 -1.011277 82
-4.673933 9.448668 -0.853703 101
-4.322651 9.491669 -1.026309 35
-4.773021 9.661189 -0.043258 88
-4.355160 9.567296 -0.871626 34
-4.413574 9.699925 -0.390768 24
-4.442060 9.766869 -0.228499 19
-4.502953 9.905156 0.269718 31
-5.047038 9.464633 -0.352077 61
-5.039876 9.455016 -0.187020 45
-4.677286 9.491408 -0.693535 40
-4.697505 9.536465 -0.532945 42
-4.703214 9.563658 -0.370308 22
-4.431266 9.781605 -1.223500 16
-4.747684 9.658142 -0.208520 27
-4.359285 9.626976 -0.713040 47
-4.386393 9.691131 -0.553769 47
-4.436805 9.806853 -0.063874 25
-4.979354 9.378663 -0.675504 69
-4.461423 9.865641 0.102050 51
-4.985816 9.394608 -0.512727 47
-4.601148 9.379752 -1.007820 77
-4.637454 9.457745 -0.853058 101
-4.292839 9.513925 -1.027093 32
-4.744618 9.688533 -0.043306 100
-4.318541 9.575136 -0.870965 33
-4.777909 9.760625 0.123291 22
-4.376494 9.707943 -0.390475 26
-4.404757 9.774976 -0.228329 18
-4.460253 9.902533 0.269222 30
-5.006603 9.467999 -0.351552 71
-4.607682 9.428763 -1.175280 67
-5.008830 9.476024 -0.187090 46
-4.647758 9.514787 -0.694058 46
-4.660821 9.545556 -0.532545 46
-4.678560 9.597983 -0.371003 23
-4.413369 9.833271 -1.228028 18
-4.715693 9.678251 -0.208597 25
-4.319120 9.627569 -0.711963 48
-4.342731 9.684513 -0.552522 46
-4.409090 9.836882 -0.063969 21
-4.924271 9.353600 -0.672457 66
-4.426959 9.881154 0.102050 39
-4.951131 9.408419 -0.512535 46
-4.573601 9.406498 -1.008973 86
-4.602669 9.470289 -0.852735 101
-4.267725 9.547022 -1.029052 15
-4.705530 9.694241 -0.043258 100
-4.289969 9.601070 -0.871957 34
-4.736825 9.762850 0.123109 20
-4.339321 9.715861 -0.390182 27
-4.372239 9.793943 -0.228414 17
-4.428919 9.925345 0.269421 33
-4.971667 9.481876 -0.351421 73
-4.543550 9.380394 -1.167267 41
-4.986861 9.514704 -0.187509 58
-4.611039 9.523767 -0.693535 42
-4.632693 9.572556 -0.533145 45
-4.641551 9.607058 -0.370725 23
-4.673185 9.676646 -0.208210 23
-4.287108 9.646234 -0.712232 45
-5.292193 9.390229 -0.333090 28
-4.312142 9.706914 -0.552938 47
-4.371479 9.844901 -0.063922 24
-4.889743 9.367192 -0.672203 56
-4.397308 9.907515 0.102163 49
-4.921956 9.432729 -0.512920 45
-4.545924 9.433167 -1.010125 90
-4.573044 9.493482 -0.853381 101
-4.668194 9.703398 -0.043225 100
-4.256429 9.615987 -0.871957 35
-4.700984 9.775721 0.123064 19
-4.306997 9.734605 -0.390329 22
-4.336408 9.805489 -0.228329 19
-4.874049 9.371317 -0.835040 8
-4.934850 9.492079 -0.351159 64
-4.505618 9.385446 -1.165931 43
-4.957306 9.539151 -0.187648 65
-4.572586 9.529009 -0.692750 41
-4.592340 9.574260 -0.532344 45
-4.604579 9.615968 -0.370447 24
-4.641134 9.696494 -0.208287 24
-4.253421 9.661135 -0.712232 43
-5.234033 9.363271 -0.331484 12
-4.276617 9.718254 -0.552730 45
-4.338673 9.863772 -0.063946 25
-4.864332 9.398396 -0.673219 58
-4.359436 9.915500 0.102088 47
-4.885287 9.442776 -0.512535 53
-4.521491 9.466969 -1.012045 95
-4.962856 9.596664 -0.022628 16
-4.539803 9.509422 -0.853381 101
-4.639329 9.730527 -0.043274 100
-4.219491 9.623549 -0.871296 34
-4.666684 9.792141 0.123064 18
-4.276035 9.756974 -0.390622 27
-4.297157 9.809657 -0.228074 19
-4.839304 9.384819 -0.834725 44
-4.903324 9.512900 -0.351290 64
-4.484573 9.426343 -1.169048 49
-4.925597 9.560062 -0.187718 63
-4.547637 9.563045 -0.694058 42
-4.560358 9.593958 -0.532545 49
-4.572700 9.635593 -0.370586 23
-4.602117 9.701796 -0.208055 29
-4.224458 9.686898 -0.713040 47
-5.197440 9.374491 -0.331237 12
-4.239476 9.725800 -0.552314 46
-4.299423 9.867856 -0.063874 25
-4.836964 9.425974 -0.673981 75
-4.326394 9.934323 0.102125 44
-4.850473 9.456216 -0.512342 51
-4.488417 9.482694 -1.012045 98
-4.909253 9.574776 -0.022536 32
-4.504876 9.521607 -0.853058 101
-4.601918 9.739429 -0.043241 95
-4.189048 9.645531 -0.871957 30
-4.634183 9.811987 0.123109 20
-5.155051 9.331322 -0.493417 1
-4.241951 9.771841 -0.390622 28
-4.264480 9.828266 -0.228159 18
-4.801070 9.391004 -0.833779 60
-4.875546 9.540638 -0.351684 55
-4.451642 9.441939 -1.169048 35
-4.890377 9.573636 -0.187648 64
-4.512526 9.575251 -0.693796 41
-4.528543 9.613432 -0.532745 51
-4.544141 9.662350 -0.371003 23
-4.578432 9.739516 -0.208520 26
-4.190619 9.701585 -0.713040 47
-5.176243 9.413596 -0.331978 14
-4.215001 9.762543 -0.553561 48
-4.272876 9.901166 -0.063993 25
-4.802221 9.439243 -0.673727 71
-4.279017 9.919983 0.101824 41
-4.819246 9.476651 -0.512535 53
-4.455289 9.498303 -1.012045 91
-4.888488 9.616815 -0.022594 36
-4.471612 9.537274 -0.853058 101
-4.567893 9.755433 -0.043241 100
-4.156929 9.663756 -0.872287 32
-4.598209 9.824481 0.123064 22
-5.114768 9.335243 -0.492677 40
-4.204657 9.779243 -0.390329 26
-4.770692 9.408579 -0.997172 2
-4.230147 9.843092 -0.228159 20
-4.759246 9.389921 -0.832203 63
-4.842213 9.557599 -0.351684 61
-4.549904 9.738335 -1.203772 13
-4.858736 9.594216 -0.187718 65
-4.477386 9.587327 -0.693535 41
-4.491579 9.621941 -0.532344 46
-4.508697 9.674529 -0.370864 22
-4.535963 9.737312 -0.208132 24
-4.145740 9.690470 -0.711155 47
-4.602760 9.885051 0.291248 13
-5.129953 9.407037 -0.331113 13
-4.176186 9.766178 -0.552938 49
-4.235144 9.908665 -0.063946 24
-4.774636 9.466641 -0.674489 78
-4.789734 9.500550 -0.512920 48
-4.420429 9.510186 -1.011661 91
-4.853089 9.630247 -0.022586 40
-4.439973 9.556441 -0.853381 101
-4.530445 9.764062 -0.043209 100
-4.118484 9.667206 -0.871296 15
-4.560522 9.833215 0.122973 19
-5.082150 9.353040 -0.492677 35
-4.172061 9.797539 -0.390475 29
-4.734244 9.418058 -0.996419 52
-4.197329 9.861478 -0.228244 21
-4.733602 9.420729 -0.833464 58
-4.807026 9.570870 -0.351552 61
-4.519223 9.761373 -1.204662 8
-4.827011 9.614692 -0.187788 66
-4.448921 9.613765 -0.694320 41
-4.457965 9.637561 -0.532344 53
-4.476590 9.689427 -0.370864 24
-4.501971 9.748671 -0.208055 27
-4.121370 9.722536 -0.712502 42
-4.571631 9.903891 0.291354 18
-5.094925 9.416964 -0.330866 13
-4.143777 9.779973 -0.552938 45
-5.137014 9.498575 -0.167754 16
-4.197583 9.911605 -0.063874 29
-4.739645 9.475282 -0.673981 78
-4.752842 9.505661 -0.512342 56
-4.390533 9.528409 -1.012045 87
-4.828281 9.660600 -0.022619 41
-4.411594 9.578355 -0.854026 101
-4.499713 9.782665 -0.043225 100
-4.087954 9.684483 -0.871626 8
-4.532901 9.859186 0.123109 18
-5.039730 9.348739 -0.491568 25
-4.139549 9.811320 -0.390475 29
-4.674559 9.376683 -0.990396 46
-4.170820 9.890081 -0.228585 18
-4.711228 9.454219 -0.835040 69
-4.777044 9.590337 -0.351684 59
-4.485170 9.772692 -1.204217 13
-4.795101 9.630646 -0.187788 59
-4.408695 9.610326 -0.693012 40
-4.429312 9.659554 -0.532745 48
-4.439413 9.697724 -0.370586 22
-4.469578 9.767962 -0.208132 27
-4.090497 9.744223 -0.713040 44
-4.533706 9.912516 0.291141 19
-5.058242 9.427645 -0.330619 12
-4.115796 9.809112 -0.553769 51
-5.088705 9.488253 -0.167257 25
-4.166053 9.933575 -0.063922 25
-4.706542 9.491769 -0.673981 72
-4.721407 9.525774 -0.512535 53
-4.355593 9.540055 -1.011661 95
-4.792754 9.673811 -0.022611 37
-4.376478 9.590069 -0.853703 101
-4.465538 9.798312 -0.043225 98
-5.002608 9.354148 -0.654378 9
-4.498458 9.874949 0.123109 19
-5.014601 9.380368 -0.492307 28
-4.105276 9.825710 -0.390475 29
-4.636508 9.382233 -0.989267 40
-4.130107 9.889819 -0.228244 19
-4.667602 9.449156 -0.833148 68
-4.736459 9.592615 -0.351159 65
-4.454321 9.795526 -1.205108 12
-4.757914 9.640153 -0.187648 68
-4.373470 9.622023 -0.692750 38
-4.392262 9.667682 -0.532344 45
-4.398883 9.698621 -0.370030 23
-4.435426 9.783518 -0.208132 27
-4.057979 9.762132 -0.713310 52
-4.504017 9.939212 0.291461 21
-5.036560 9.466428 -0.331360 13
-4.080004 9.819727 -0.553561 50
-4.612465 9.380202 -1.150317 11
-5.057438 9.509485 -0.167319 23
-4.673404 9.508128 -0.673981 70
-4.682882 9.531419 -0.511957 48
-4.322323 9.555175 -1.011661 95
-4.757252 9.686862 -0.022603 38
-4.336481 9.590721 -0.852412 101
-4.433084 9.817428 -0.043241 100
-4.964438 9.360907 -0.653639 16
-4.469046 9.901461 0.123246 20
-4.985712 9.404801 -0.492677 28
-4.078760 9.858379 -0.391208 28
-4.621406 9.434045 -0.993031 47
-4.100330 9.915186 -0.228499 18
-4.634766 9.465304 -0.833148 65
-4.701385 9.605403 -0.351027 55
-4.428484 9.829038 -1.207333 9
-4.726208 9.660190 -0.187718 67
-4.343367 9.644404 -0.693273 45
-4.362019 9.690127 -0.532745 50
-4.371556 9.728502 -0.370586 25
-4.406164 9.809885 -0.208365 27
-4.022359 9.772547 -0.713040 49
-4.470933 9.958521 0.291568 17
-4.996023 9.469806 -0.330866 13
-4.036583 9.811744 -0.552314 52
-4.570984 9.378375 -1.148130 101
-5.020482 9.520005 -0.167195 26
-4.641934 9.527972 -0.674235 76
-4.647834 9.544115 -0.511764 53
-4.292200 9.577471 -1.012429 90
-4.718158 9.692619 -0.022578 53
-4.304606 9.609438 -0.852735 101
-4.737140 9.735731 0.143624 34
-4.400422 9.836493 -0.043258 100
-4.937307 9.388779 -0.654378 16
-4.426293 9.898744 0.123019 19
-4.947275 9.411536 -0.492123 29
-4.032200 9.842965 -0.390036 27
-4.583229 9.439372 -0.991902 45
-4.059633 9.914635 -0.228159 21
-4.606921 9.492188 -0.834094 68
-4.673062 9.632545 -0.351421 54
-4.434654 9.935184 -1.218463 2
-4.690713 9.673030 -0.187648 72
-4.309675 9.659507 -0.693273 44
-4.323286 9.694349 -0.532144 44
-5.273609 9.323377 -0.310426 7
-4.337571 9.743702 -0.370586 23
-4.368642 9.817898 -0.208210 26
-4.868966 9.303782 -0.809838 4
-3.989728 9.790223 -0.713310 52
-4.441019 9.985027 0.291888 2
-4.966643 9.494273 -0.331113 12
-4.006830 9.836873 -0.552938 50
-4.541678 9.401434 -1.149005 101
-4.987220 9.537473 -0.167195 24
-4.605175 9.536928 -0.673727 82
-4.619700 9.571074 -0.512342 47
-4.260358 9.596034 -1.012813 53
-4.682558 9.705427 -0.022569 45
-4.274271 9.631694 -0.853381 101
-4.704864 9.755811 0.143677 33
-4.362818 9.844480 -0.043225 100
-4.898966 9.395336 -0.653639 15
-4.390093 9.910478 0.122973 20
-4.914392 9.428748 -0.492123 24
-4.006832 9.879206 -0.390915 24
-4.557159 9.469666 -0.993407 46
-4.032512 9.947276 -0.228585 16
-4.568573 9.497431 -0.833148 58
-4.639410 9.648799 -0.351421 60
-4.656919 9.689344 -0.187648 68
-4.277544 9.678143 -0.693535 42
-4.291034 9.713036 -0.532344 45
-5.264508 9.383572 -0.311816 39
-4.303578 9.758763 -0.370586 24
-4.334373 9.833075 -0.208210 26
-4.853019 9.352567 -0.812606 56
-3.951061 9.792983 -0.712502 52
-4.929801 9.504448 -0.330866 13
-3.976944 9.861917 -0.553561 50
-4.491657 9.381371 -1.144629 101
-4.952050 9.551275 -0.167133 24
-4.571834 9.552957 -0.673727 75
-4.584498 9.583558 -0.512150 56
-4.652042 9.728959 -0.022586 39
-4.242153 9.650239 -0.853703 101
-4.668980 9.768602 0.143624 28
-4.336336 9.878019 -0.043306 100
-4.869682 9.419538 -0.654132 16
-4.355322 9.925807 0.122973 20
-4.881308 9.445919 -0.492123 28
-3.972155 9.893199 -0.390915 26
-4.523916 9.485593 -0.993407 51
-4.533500 9.509805 -0.832833 61
-4.602063 9.657811 -0.351159 59
-4.624573 9.709254 -0.187718 75
-4.246703 9.700430 -0.694058 43
-4.255250 9.724405 -0.532144 50
-5.206205 9.356606 -0.310310 23
-4.269488 9.773726 -0.370586 25
-4.300024 9.848145 -0.208210 28
-4.833114 9.394275 -0.814759 50
-3.922774 9.821540 -0.713579 47
-4.903907 9.535821 -0.331360 13
-3.942495 9.875738 -0.553561 48
-4.465701 9.411362 -1.146379 101
-4.918680 9.568503 -0.167133 22
-4.540171 9.572463 -0.673981 84
-4.542459 9.581451 -0.511187 58
-4.619767 9.748754 -0.022594 44
-4.198891 9.643055 -0.851766 101
-4.636565 9.788455 0.143677 31
-4.298638 9.885759 -0.043274 98
-4.834951 9.432925 -0.653886 15
-4.322243 9.944617 0.123019 18
-4.844662 9.455789 -0.491753 28
-3.939074 9.910719 -0.391062 21
-4.490777 9.501327 -0.993407 47
-4.935776 9.637619 -0.001890 12
-4.507090 9.539994 -0.834094 66
-4.571737 9.681046 -0.351421 59
-4.583824 9.710872 -0.187439 64
-4.209641 9.707870 -0.693535 42
-5.168313 9.361578 -0.474367 12
-4.222868 9.742865 -0.532344 53
-5.171580 9.371222 -0.310194 25
-4.243406 9.802505 -0.371142 22
-4.270518 9.869691 -0.208365 29
-4.794684 9.396041 -0.813528 43
-4.863175 9.534223 -0.330742 12
-3.911193 9.892472 -0.553769 43
-4.449700 9.458499 -1.150317 101
-4.892373 9.595451 -0.167319 25
-4.506703 9.583854 -0.673727 70
-4.514060 9.603694 -0.511572 53
-4.587413 9.764019 -0.022594 45
-4.174788 9.675230 -0.853381 101
-4.595579 9.785675 0.143412 33
-4.262667 9.892612 -0.043241 100
-4.801835 9.445348 -0.653639 16
-4.816899 9.478926 -0.492123 27
-3.910579 9.934886 -0.391501 19
-4.460935 9.519772 -0.993784 47
-4.894732 9.636102 -0.001886 14
-4.475430 9.554888 -0.834094 63
-4.534523 9.685292 -0.351027 54
-4.556682 9.736886 -0.187648 78
-4.177425 9.721777 -0.693535 38
-5.131481 9.368151 -0.473836 44
-4.193690 9.764156 -0.532745 51
-5.153918 9.412869 -0.311005 29
-4.198064 9.791570 -0.370169 25
-4.733786 9.353497 -0.970648 28
-4.231270 9.873528 -0.208132 29
-4.751012 9.391389 -0.811683 40
-4.826240 9.544013 -0.330495 13
-3.872281 9.894901 -0.553146 39
-4.408266 9.455951 -1.148130 101
-4.853446 9.601757 -0.167133 25
-4.474945 9.603128 -0.673981 80
-4.480574 9.619362 -0.511572 55
-4.550018 9.772677 -0.022578 40
-4.136408 9.678694 -0.852412 101
-4.561512 9.801601 0.143412 37
-4.229884 9.911023 -0.043258 101
-4.763640 9.451258 -0.652901 15
-4.778611 9.484865 -0.491568 23
-3.871784 9.937200 -0.391062 20
-4.427928 9.535169 -0.993784 47
-4.870315 9.670864 -0.001890 15
-4.447365 9.581173 -0.835040 58
-4.506045 9.711797 -0.351421 61
-4.517957 9.741691 -0.187439 74
-4.142266 9.732471 -0.693273 39
-5.106731 9.399859 -0.474545 48
-4.159975 9.778568 -0.532745 47
-5.113777 9.416541 -0.310541 28
-4.174796 9.831922 -0.371142 22
-4.704679 9.377084 -0.971385 32
-4.196779 9.888239 -0.208132 25
-4.723565 9.418612 -0.812606 36
-4.796479 9.567949 -0.330742 12
-3.844932 9.926983 -0.554185 32
-4.488615 9.716725 -1.177883 64
-4.818108 9.615065 -0.167071 23
-4.439723 9.615066 -0.673727 76
-4.446969 9.634944 -0.511572 56
-4.515878 9.788500 -0.022578 36
-4.102598 9.693074 -0.852412 101
-4.528945 9.821096 0.143465 34
-4.190590 9.914675 -0.043209 100
-4.727051 9.460686 -0.652408 14
-4.752615 9.515786 -0.492307 28
-4.384629 9.528861 -0.991525 47
-4.831168 9.677070 -0.001888 15
-4.398897 9.564034 -0.832203 60
-4.463768 9.709305 -0.350765 62
-4.485594 9.761036 -0.187509 76
-4.108268 9.746872 -0.693273 38
-4.539570 9.882800 0.311380 20
-5.071993 9.414110 -0.474367 43
-4.124265 9.789348 -0.532545 53
-5.086563 9.444895 -0.310889 25
-4.138901 9.842749 -0.371003 22
-4.664824 9.379184 -0.969910 29
-5.100757 9.486663 -0.146641 9
-4.163787 9.906515 -0.208210 25
-4.695985 9.445756 -0.813528 35
-4.750597 9.559571 -0.329878 14
-3.814546 9.951533 -0.554809 35
-4.471217 9.768487 -1.182258 40
-4.784516 9.631824 -0.167071 22
-4.404473 9.626875 -0.673473 82
-4.409986 9.643141 -0.511187 47
-4.483345 9.807842 -0.022586 39
-4.073361 9.718367 -0.853381 101
-4.497960 9.844121 0.143571 34
-5.035891 9.392080 -0.636875 24
-4.159045 9.936622 -0.043241 88
-4.693998 9.477128 -0.652408 14
-4.717597 9.528737 -0.492123 26
-4.359601 9.562225 -0.993407 48
-4.797359 9.693874 -0.001888 14
-4.370446 9.590217 -0.833148 64
-4.434820 9.735742 -0.351159 58
-4.453152 9.780273 -0.187578 70
-4.069608 9.750102 -0.692488 46
-4.501732 9.891308 0.311151 17
-5.027802 9.410610 -0.473304 42
-4.090069 9.803684 -0.532545 50
-4.629526 9.374235 -1.130247 17
-5.059214 9.473174 -0.311237 25
-4.096934 9.838643 -0.370308 23
-4.625105 9.381074 -0.968435 27
-5.075233 9.518476 -0.146859 39
-4.129243 9.920963 -0.208210 26
-4.659517 9.454906 -0.812913 32
-4.726056 9.594018 -0.330495 15
-3.776937 9.957323 -0.554393 31
-4.442004 9.794905 -1.183571 45
-4.747318 9.641297 -0.166947 24
-4.370791 9.642214 -0.673473 67
-4.381157 9.669434 -0.511764 49
-4.445655 9.816202 -0.022569 40
-4.468354 9.870768 0.143730 34
-4.997295 9.399109 -0.636159 40
-4.660621 9.493587 -0.652408 15
-4.680481 9.538122 -0.491753 29
-4.329131 9.584799 -0.994160 51
-4.764905 9.714323 -0.001888 17
-4.338203 9.609220 -0.833464 64
-4.400385 9.751354 -0.351159 61
-4.413589 9.785030 -0.187369 64
-4.045721 9.790277 -0.694320 42
-4.471601 9.918125 0.311495 17
-5.005664 9.449546 -0.474367 41
-4.056808 9.821817 -0.532745 56
-4.605000 9.408451 -1.132397 100
-5.023723 9.487518 -0.311121 23
-4.070185 9.871363 -0.371003 24
-4.592331 9.397161 -0.968435 30
-5.012065 9.479561 -0.145987 28
-4.099159 9.946409 -0.208442 23
-4.628235 9.474697 -0.813221 42
-4.690783 9.606863 -0.330372 13
-3.747772 9.985406 -0.555225 21
-4.417563 9.832111 -1.186196 32
-4.717143 9.664998 -0.167071 22
-4.338742 9.661054 -0.673727 73
-4.350650 9.691957 -0.512150 53
-4.411363 9.831660 -0.022569 40
-4.424051 9.864408 0.143412 36
-4.960731 9.409431 -0.635682 42
-4.636188 9.527747 -0.653639 16
-4.645410 9.550809 -0.491568 26
-4.292394 9.592582 -0.993407 52
-4.722222 9.712910 -0.001885 15
-4.303006 9.620665 -0.833148 64
-4.753249 9.780937 0.165139 3
-4.363056 9.759356 -0.350896 60
-4.381037 9.804029 -0.187439 68
-4.011521 9.804339 -0.694320 44
-4.967074 9.456348 -0.473836 43
-4.020987 9.832220 -0.532545 51
-4.563452 9.406578 -1.130247 97
-4.990575 9.504997 -0.311121 26
-4.035703 9.885510 -0.371003 24
-4.561237 9.416719 -0.968804 27
-4.986373 9.511168 -0.146205 29
-4.059881 9.949549 -0.208210 28
-4.595135 9.490795 -0.813221 40
-4.653737 9.615981 -0.330125 13
-4.685119 9.685005 -0.167133 26
-4.308238 9.683434 -0.674235 72
-4.313546 9.699784 -0.511764 56
-5.278703 9.353308 -0.290618 0
-4.381891 9.857965 -0.022594 40
-4.898467 9.366609 -0.794775 10
-4.396087 9.894411 0.143624 36
-4.929706 9.430228 -0.635920 41
-4.599433 9.536681 -0.653147 15
-4.613779 9.570565 -0.491753 30
-4.258883 9.607507 -0.993407 45
-4.688289 9.729334 -0.001885 13
-4.267782 9.631981 -0.832833 64
-4.717342 9.793866 0.165078 18
-4.325726 9.767216 -0.350634 59
-4.340312 9.804633 -0.187160 72
-3.974276 9.810884 -0.693796 38
-4.716112 9.804040 -1.597215 25
-4.928497 9.462996 -0.473304 42
-3.986641 9.846196 -0.532545 54
-4.521973 9.404530 -1.128098 101
-4.944442 9.497534 -0.310310 23
-3.999828 9.891457 -0.370725 24
-4.528191 9.428236 -0.968435 28
-4.962116 9.541882 -0.146423 30
-4.023822 9.955560 -0.208055 5
-4.561867 9.502406 -0.812913 33
-4.620077 9.627765 -0.330001 13
-4.651257 9.696877 -0.167071 26
-4.271308 9.686693 -0.673473 75
-4.279810 9.710350 -0.511572 60
-5.255535 9.384682 -0.291051 29
-4.344433 9.861418 -0.022569 41
-4.852774 9.354429 -0.792375 32
-4.363374 9.908881 0.143624 38
-4.905876 9.460642 -0.636875 38
-4.567981 9.551785 -0.653147 15
-4.580519 9.582099 -0.491568 27
-4.230459 9.628757 -0.994160 19
-4.661431 9.755532 -0.001887 13
-4.234497 9.642305 -0.832518 61
-4.688573 9.816537 0.165200 16
-4.295233 9.785029 -0.350765 56
-4.320973 9.848121 -0.187718 67
-3.940604 9.820156 -0.693535 36
-4.690761 9.833737 -1.599539 73
-4.901116 9.486203 -0.473658 40
-3.955855 9.862910 -0.532745 53
-4.492855 9.422881 -1.128527 93
-4.918809 9.524337 -0.310657 21
-3.968248 9.912781 -0.371003 24
-4.500388 9.454774 -0.969542 27
-4.934278 9.569809 -0.146586 29
-4.523529 9.507468 -0.811991 38
-4.593310 9.658275 -0.330495 13
-4.608795 9.694994 -0.166760 24
-4.235872 9.697886 -0.673219 73
-5.186582 9.334204 -0.453158 5
-4.249085 9.732553 -0.511957 53
-5.226627 9.409961 -0.291267 21
-4.314783 9.887522 -0.022594 39
-4.820092 9.371312 -0.792375 33
-4.325561 9.916719 0.143518 38
-4.861868 9.456403 -0.635443 39
-4.536322 9.571280 -0.653393 16
-4.548754 9.601641 -0.491753 30
-4.273099 9.818735 -1.012229 3
-4.625637 9.768128 -0.001886 16
-4.205585 9.667997 -0.833464 65
-4.659412 9.843688 0.165382 15
-4.265833 9.810962 -0.351159 59
-4.284976 9.859476 -0.187648 68
-3.907775 9.837561 -0.693796 38
-4.651332 9.839317 -1.597796 72
-4.866151 9.499697 -0.473481 46
-3.919929 9.872946 -0.532545 56
-4.465032 9.449293 -1.129817 100
-4.885533 9.541449 -0.310657 26
-3.935094 9.930288 -0.371142 22
-4.465658 9.466824 -0.969173 28
-4.897202 9.579852 -0.146477 29
-4.492015 9.526808 -0.812298 41
-4.919715 9.627845 0.018870 4
-4.556159 9.667017 -0.330248 12
-4.580038 9.721876 -0.166947 26
-4.205164 9.719940 -0.673727 72
-5.152039 9.348751 -0.452989 79
-4.215087 9.747326 -0.511957 60
-5.174455 9.393125 -0.290185 21
-4.283417 9.909866 -0.022611 42
-4.789162 9.391633 -0.792675 35
-4.832456 9.480432 -0.635920 42
-4.489305 9.558147 -0.651423 17
-4.513513 9.613844 -0.491568 26
-4.593211 9.787837 -0.001887 16
-4.174967 9.689942 -0.834094 80
-4.623324 9.856272 0.165321 17
-4.229979 9.822121 -0.351027 61
-4.245790 9.863353 -0.187439 69
-4.763599 9.376179 -0.953409 17
-3.888017 9.888288 -0.696413 6
-4.601848 9.823239 -1.592567 50
-4.836580 9.523751 -0.473836 43
-3.889826 9.897723 -0.533145 47
-4.432021 9.464822 -1.129817 100
-4.846768 9.547748 -0.310310 28
-3.897535 9.936502 -0.370864 19
-4.427570 9.471508 -0.968066 23
-4.861969 9.593297 -0.146423 26
-4.460449 9.546030 -0.812606 38
-4.896952 9.666354 0.018912 34
-4.522398 9.682857 -0.330248 14
-4.551144 9.748680 -0.167133 21
-4.172758 9.738239 -0.673981 76
-5.128935 9.384225 -0.453837 59
-4.179422 9.758326 -0.511764 52
-5.124342 9.379570 -0.289211 20
-4.244016 9.913752 -0.022586 45
-4.750894 9.397643 -0.791775 33
-4.792055 9.483025 -0.634966 43
-4.462525 9.588298 -0.652408 16
-4.476410 9.622362 -0.491198 34
-4.557165 9.800261 -0.001886 14
-4.140936 9.704535 -0.834094 73
-4.590393 9.876062 0.165382 16
-4.195466 9.836912 -0.351027 60
-4.211115 9.878207 -0.187439 59
-4.719881 9.371508 -0.951242 26
-4.543965 9.789097 -1.584433 35
-4.790498 9.515707 -0.472595 40
-3.854996 9.911341 -0.533145 58
-4.400384 9.483956 -1.130247 87
-4.813163 9.564733 -0.310310 25
-4.394481 9.486906 -0.968066 31
-4.832044 9.617358 -0.146532 29
-4.422073 9.550685 -0.811683 34
-4.855999 9.669091 0.018884 28
-4.490251 9.702212 -0.330372 13
-4.513728 9.757247 -0.167009 23
-4.140299 9.756420 -0.674235 76
-5.080911 9.373963 -0.452480 66
-4.143773 9.769176 -0.511572 55
-5.104903 9.422010 -0.289969 19
-4.212508 9.935871 -0.022603 51
-4.723423 9.424868 -0.792675 32
-4.758924 9.499695 -0.634966 42
-4.429029 9.603816 -0.652408 16
-4.446140 9.645186 -0.491568 27
-4.521254 9.812475 -0.001886 15
-4.105484 9.715257 -0.833779 77
-4.560910 9.902924 0.165564 14
-5.053325 9.356855 -0.615028 17
-4.164215 9.858863 -0.351290 59
-4.178163 9.896531 -0.187509 68
-4.685359 9.384362 -0.950881 25
-4.496537 9.776134 -1.579785 64
-4.762607 9.543097 -0.473127 47
-3.823246 9.932193 -0.533546 50
-4.397153 9.564297 -1.137986 30
-4.779747 9.581475 -0.310310 26
-4.361339 9.502188 -0.968066 26
-4.793094 9.623426 -0.146369 26
-4.400350 9.591436 -0.813836 37
-4.820436 9.682402 0.018877 28
-4.451356 9.706924 -0.330001 13
-4.474642 9.762036 -0.166822 28
-4.103124 9.763453 -0.673727 73
-4.558051 9.948421 0.334336 29
-5.042483 9.381082 -0.451971 67
-4.109647 9.783582 -0.511572 56
-5.081446 9.457384 -0.290510 21
-4.176251 9.946827 -0.022594 34
-4.688720 9.437726 -0.792375 33
-4.720407 9.505520 -0.634250 43
-4.402115 9.633743 -0.653393 15
-4.410785 9.657013 -0.491383 35
-4.493619 9.842752 -0.001888 15
-4.071546 9.729528 -0.833779 65
-4.518013 9.900591 0.165260 17
-5.024404 9.381478 -0.615490 48
-4.123605 9.858585 -0.350765 56
-4.655951 9.403504 -1.113973 42
-4.137422 9.896296 -0.187229 66
-4.673778 9.443504 -0.955215 27
-4.465667 9.798973 -1.580947 70
-4.727494 9.556082 -0.472949 45
-3.785708 9.938011 -0.533145 54
-4.447817 9.764158 -1.159911 18
-4.744500 9.594518 -0.310194 27
-4.326495 9.513728 -0.967698 31
-4.761244 9.643684 -0.146423 29
-4.358591 9.588585 -0.812298 40
-4.795459 9.717104 0.018912 25
-4.419100 9.726044 -0.330125 13
-4.445500 9.788521 -0.167009 24
-4.073620 9.788773 -0.674489 76
-4.503465 9.920585 0.332870 27
-5.020985 9.419786 -0.452989 62
-4.078540 9.805245 -0.511957 53
-4.861939 9.868541 -1.477647 1
-5.048403 9.475064 -0.290510 20
-4.653986 9.450457 -0.792075 34
-4.685435 9.518356 -0.634011 42
-4.363521 9.638140 -0.652654 16
-4.375401 9.668711 -0.491198 30
-4.455937 9.851089 -0.001887 15
-4.485074 9.919946 0.165321 16
-4.976641 9.370746 -0.613642 37
-4.093756 9.884001 -0.351159 56
-4.617841 9.408987 -1.112706 101
-5.069308 9.549109 -0.126429 66
-4.107441 9.921763 -0.187439 61
-4.632013 9.441878 -0.953409 28
-4.426549 9.803681 -1.579204 66
-4.697627 9.579701 -0.473304 46
-3.753813 9.958642 -0.533546 28
-4.431702 9.819497 -1.164640 14
-4.707460 9.603840 -0.309962 27
-4.299804 9.543298 -0.969173 32
-4.729310 9.663838 -0.146477 29
-4.328369 9.611013 -0.812913 38
-4.747449 9.705039 0.018857 23
-4.381840 9.734118 -0.329878 12
-4.404740 9.789390 -0.166760 22
-4.036384 9.795550 -0.673981 76
-4.468808 9.936244 0.332870 9
-4.982471 9.426656 -0.452480 67
-4.045810 9.823116 -0.512150 56
-4.804847 9.839142 -1.470725 17
-5.015298 9.492628 -0.290510 21
-4.627968 9.480983 -0.793275 33
-4.657434 9.545420 -0.634727 43
-4.334753 9.664241 -0.653393 17
-4.344894 9.691216 -0.491568 33
-4.419888 9.862933 -0.001886 15
-4.460229 9.957442 0.165685 17
-4.947622 9.395126 -0.614104 36
-4.059229 9.898231 -0.351159 65
-4.564089 9.382127 -1.107639 79
-5.004272 9.506577 -0.125634 31
-4.072783 9.936041 -0.187439 65
-4.597284 9.454407 -0.953048 28
-4.405229 9.847974 -1.583852 34
-4.662412 9.592447 -0.473127 45
-4.420124 9.885734 -1.170659 6
-4.677402 9.627406 -0.310194 28
-4.263218 9.550975 -0.968435 29
-4.688566 9.665894 -0.146260 27
-4.296419 9.629705 -0.813221 41
-4.722269 9.739548 0.018891 25
-4.346207 9.745703 -0.329754 14
-4.372171 9.808358 -0.166822 22
-4.002167 9.809581 -0.673981 78
-4.947680 9.440451 -0.452310 62
-4.014513 9.844579 -0.512535 51
-4.741111 9.795192 -1.461672 14
-4.976565 9.499452 -0.290185 22
-4.582685 9.471945 -0.791176 31
-4.622347 9.558024 -0.634489 48
-4.299370 9.675664 -0.653147 15
-4.724231 9.781289 0.185811 4
-4.314283 9.713628 -0.491938 30
-4.385433 9.878302 -0.001886 19
-4.902198 9.384363 -0.775649 78
-4.404355 9.925426 0.164896 17
-4.914797 9.412340 -0.614104 37
-4.024653 9.912339 -0.351159 56
-4.533039 9.401584 -1.108061 83
-4.971057 9.523988 -0.125634 32
-4.041083 9.957608 -0.187578 31
-4.572902 9.488340 -0.954854 29
-4.621963 9.594263 -0.472418 48
-4.648972 9.654482 -0.310541 25
-4.236297 9.580369 -0.969910 29
-4.663462 9.700224 -0.146532 27
-4.262779 9.644645 -0.813221 40
-4.681313 9.741551 0.018864 25
-4.312161 9.760815 -0.329754 13
-4.336291 9.819901 -0.166760 27
-3.967900 9.823491 -0.673981 78
-4.923910 9.475394 -0.453158 62
-3.978629 9.854827 -0.512342 54
-4.694887 9.786661 -1.457945 18
-4.941532 9.513217 -0.290077 17
-4.547869 9.484287 -0.790876 30
-4.588955 9.574101 -0.634489 45
-4.265570 9.690613 -0.653147 17
-4.688332 9.794112 0.185743 35
-5.236133 9.362464 -0.434599 1
-4.277132 9.721313 -0.491568 28
-5.252807 9.395989 -0.270601 3
-4.352535 9.897211 -0.001887 17
-4.869411 9.401419 -0.775649 85
-4.382557 9.970030 0.165382 16
-4.887420 9.440077 -0.614797 35
-3.990028 9.926328 -0.351159 60
-4.508769 9.435294 -1.110173 100
-4.954327 9.573252 -0.126055 35
-4.534602 9.493461 -0.953770 30
-4.590166 9.613944 -0.472595 46
-4.611799 9.663434 -0.310310 26
-4.196437 9.580504 -0.968435 21
-4.626132 9.709222 -0.146423 31
-4.232285 9.666772 -0.813836 42
-4.650720 9.765056 0.018877 22
-4.289284 9.801447 -0.330619 13
-4.301987 9.834978 -0.166760 26
-3.936550 9.844695 -0.674489 73
-4.885314 9.481867 -0.452649 73
-3.942723 9.864944 -0.512150 58
-4.647079 9.774347 -1.453685 16
-4.908295 9.530408 -0.290077 21
-4.519871 9.510913 -0.791775 33
-4.555508 9.590061 -0.634489 42
-4.225335 9.690804 -0.652162 17
-4.655830 9.814032 0.185811 33
-5.197603 9.370199 -0.434114 42
-4.239979 9.728858 -0.491198 34
-5.225794 9.424759 -0.270902 32
-4.316363 9.908676 -0.001886 17
-4.827452 9.400615 -0.774188 74
-4.333359 9.952265 0.164835 2
-4.848967 9.446422 -0.614104 36
-3.952399 9.932766 -0.350896 71
-4.477508 9.454571 -1.110595 101
-4.917228 9.583370 -0.125962 34
-4.496323 9.498430 -0.952687 30
-4.556579 9.629909 -0.472595 40
-4.578039 9.679474 -0.310310 28
-4.234307 9.759520 -0.985031 10
-4.590505 9.721694 -0.146369 28
-4.188996 9.659534 -0.811991 42
-4.616605 9.781230 0.018877 24
-4.245503 9.794350 -0.329878 13
-4.270810 9.857275 -0.166884 27
-4.779313 9.352318 -0.931802 12
-3.905100 9.865799 -0.674997 75
-4.846732 9.488185 -0.452141 71
-3.909733 9.882362 -0.512342 50
-4.601104 9.765405 -1.449958 12
-4.873179 9.543921 -0.289969 21
-4.481546 9.515806 -0.790876 35
-4.525405 9.613130 -0.634966 46
-4.197813 9.720156 -0.653147 17
-4.618141 9.822985 0.185674 35
-5.147525 9.356770 -0.432656 26
-4.209160 9.750937 -0.491568 29
-5.171669 9.404401 -0.269797 20
-4.281749 9.923683 -0.001886 13
-4.780128 9.388968 -0.771850 76
-4.817775 9.466849 -0.614335 36
-3.917703 9.946502 -0.350896 71
-4.442788 9.466541 -1.110173 101
-4.885559 9.604041 -0.126009 40
-4.466524 9.521280 -0.953409 33
-4.528026 9.656610 -0.473127 46
-4.544223 9.695395 -0.310310 22
-4.554821 9.734049 -0.146314 29
-4.155237 9.674104 -0.811991 37
-4.582418 9.797293 0.018877 23
-4.212860 9.812786 -0.330001 13
-4.236379 9.872121 -0.166884 24
-4.757446 9.390267 -0.933923 41
-3.867739 9.871932 -0.674489 44
-4.811790 9.501473 -0.451971 73
-3.879608 9.907102 -0.512920 51
-4.575397 9.799356 -1.452620 32
-4.839858 9.560863 -0.289969 21
-4.456769 9.549449 -0.792375 36
-4.485112 9.614374 -0.634011 48
-4.159220 9.723706 -0.652408 15
-4.583897 9.839011 0.185674 33
-5.101503 9.350083 -0.431523 26
-4.178321 9.772882 -0.491938 27
-5.144633 9.432884 -0.270098 19
-4.250320 9.945885 -0.001888 14
-4.758200 9.426920 -0.773603 75
-4.784799 9.483559 -0.614335 39
-4.414857 9.492762 -1.111440 101
-4.848513 9.613838 -0.125915 42
-4.433380 9.536758 -0.953409 30
-4.886817 9.693821 0.039789 14
-4.487685 9.657800 -0.472418 54
-4.508809 9.707507 -0.310194 25
-4.519133 9.746260 -0.146260 28
-4.133932 9.717908 -0.814451 39
-4.549873 9.816857 0.018884 24
-5.075352 9.346248 -0.594611 12
-4.180146 9.831111 -0.330125 13
-4.200329 9.883168 -0.166822 25
-4.708544 9.374772 -0.930742 35
-4.778595 9.518211 -0.451971 69
-3.842114 9.913133 -0.512535 51
-4.504541 9.736112 -1.440905 13
-4.799281 9.563403 -0.289536 19
-4.423408 9.564948 -0.792375 31
-4.458226 9.644468 -0.634966 49
-4.128367 9.745518 -0.652901 17
-4.549525 9.854953 0.185674 37
-5.084050 9.395955 -0.432818 23
-4.142624 9.783729 -0.491753 26
-5.117382 9.461336 -0.270400 24
-4.210900 9.949610 -0.001886 14
-4.732406 9.457742 -0.774772 78
-4.746307 9.489489 -0.613642 44
-4.383359 9.511726 -1.111862 101
-4.816714 9.634282 -0.125962 42
-4.398396 9.548557 -0.953048 32
-4.849374 9.703664 0.039760 15
-4.458960 9.684296 -0.472949 51
-4.466538 9.705026 -0.309614 25
-4.478405 9.747437 -0.146042 29
-4.093791 9.717578 -0.813221 36
-4.517248 9.836315 0.018891 22
-5.044590 9.367423 -0.594834 48
-4.142700 9.838273 -0.329878 13
-4.686401 9.408517 -1.095485 4
-4.162702 9.890397 -0.166698 24
-4.682895 9.405417 -0.932156 38
-4.745341 9.534834 -0.451971 65
-3.808918 9.930214 -0.512727 49
-4.473833 9.758984 -1.441970 13
-4.771212 9.590837 -0.289860 21
-4.388331 9.576704 -0.792075 33
-4.419545 9.649081 -0.634250 47
-4.100502 9.774595 -0.653886 14
-4.515097 9.870773 0.185674 37
-5.049331 9.410123 -0.432656 23
-4.106902 9.794444 -0.491568 31
-4.513391 9.871407 0.352488 2
-5.080544 9.472095 -0.270199 21
-4.695818 9.467055 -0.774188 78
-4.711380 9.502420 -0.613411 42
-4.434391 9.711503 -1.133398 23
-4.781278 9.647453 -0.125915 38
-4.370001 9.574724 -0.954131 33
-4.811921 9.713364 0.039731 15
-4.425128 9.699801 -0.472949 47
-4.442587 9.742385 -0.310310 23
-4.446036 9.766640 -0.146096 29
-4.055255 9.720760 -0.812298 35
-4.476274 9.837453 0.018864 29
-5.002470 9.367352 -0.593718 51
-4.116033 9.871121 -0.330495 13
-4.658821 9.435516 -1.096729 61
-4.135842 9.923327 -0.167009 24
-4.657085 9.436000 -0.933570 42
-4.706712 9.540595 -0.451462 74
-3.777044 9.950929 -0.513113 47
-4.442996 9.781771 -1.443035 14
-4.732377 9.596686 -0.289536 20
-4.354843 9.591978 -0.792075 37
-4.385794 9.664469 -0.634250 42
-4.063221 9.781506 -0.653393 16
-4.483842 9.893792 0.185811 38
-5.005118 9.406558 -0.431685 25
-4.074138 9.812445 -0.491753 33
-4.515114 9.967256 0.355344 76
-4.826066 9.811631 -1.371631 4
-5.043614 9.482753 -0.269998 23
-4.662653 9.483434 -0.774188 80
-4.679843 9.522442 -0.613642 45
-4.439700 9.813951 -1.143533 15
-4.747463 9.664138 -0.125915 37
-4.333150 9.582714 -0.953409 29
-4.774338 9.722980 0.039701 14
-4.391111 9.715248 -0.472949 52
-4.406765 9.754253 -0.310194 25
-4.420139 9.800329 -0.146369 29
-4.033480 9.764344 -0.814759 27
-4.443552 9.856665 0.018870 27
-4.971610 9.388287 -0.593941 47
-4.083077 9.889125 -0.330619 14
-4.603120 9.405267 -1.091338 58
-5.054276 9.548275 -0.105595 13
-4.101178 9.937703 -0.167009 26
-4.624119 9.452199 -0.933570 45
-4.678647 9.567737 -0.451971 67
-4.426719 9.836987 -1.448893 14
-4.704117 9.623924 -0.289860 23
-4.326243 9.618034 -0.792975 35
-4.356944 9.690644 -0.634966 44
-4.022978 9.780860 -0.652408 16
-4.442727 9.894790 0.185538 37
-4.972253 9.423972 -0.431685 27
-4.042900 9.833998 -0.492123 28
-4.767437 9.778473 -1.364661 20
-5.019809 9.517985 -0.270500 26
-4.629522 9.499652 -0.774188 84
-4.646575 9.538719 -0.613642 44
-4.429818 9.883834 -1.149867 17
-4.711948 9.677055 -0.125868 38
-4.302931 9.605053 -0.954131 30
-4.740369 9.739587 0.039701 13
-4.357172 9.730516 -0.472949 52
-4.369423 9.762278 -0.309962 24
-4.379376 9.801092 -0.146151 27
-4.915156 9.356714 -0.753898 31
-4.404225 9.861158 0.018850 24
-4.936952 9.402047 -0.593718 44
-4.043994 9.892215 -0.330248 13
-4.558107 9.396221 -1.088436 50
-5.015339 9.555235 -0.105478 22
-4.067976 9.955661 -0.167071 24
-4.592835 9.471868 -0.933923 40
-4.639992 9.573221 -0.451462 71
-4.397198 9.863242 -1.450490 13
-4.668751 9.636688 -0.289752 20
-4.289397 9.625791 -0.792375 36
-4.319841 9.698500 -0.634489 45
-3.990317 9.798541 -0.652654 15
-4.404909 9.902929 0.185401 38
-4.939327 9.441271 -0.431685 20
-4.004029 9.836947 -0.491568 25
-4.716007 9.759319 -1.359682 27
-4.971730 9.507102 -0.269696 28
-4.592863 9.508570 -0.773603 80
-4.613251 9.554881 -0.613642 49
-4.679879 9.697046 -0.125915 33
-4.269377 9.620014 -0.954131 30
-4.706343 9.756074 0.039701 14
-4.323180 9.745667 -0.472949 51
-4.335320 9.777471 -0.309962 30
-4.343539 9.808278 -0.146042 30
-4.885876 9.376536 -0.754182 27
-4.371455 9.875729 0.018850 24
-4.903859 9.414847 -0.593494 43
-4.015652 9.916696 -0.330619 14
-4.533804 9.425633 -1.090094 50
-4.983609 9.571822 -0.105478 24
-4.561410 9.487041 -0.933923 38
-4.606526 9.584935 -0.451293 71
-4.378952 9.910377 -1.455282 11
-4.638565 9.655690 -0.289860 21
-4.257544 9.639921 -0.792375 35
-4.722653 9.834897 0.207578 13
-5.253349 9.372082 -0.414621 3
-4.289388 9.716372 -0.634727 46
-3.963979 9.826447 -0.653639 17
-4.373864 9.921051 0.185469 37
-4.926597 9.492971 -0.433304 23
-3.973112 9.853784 -0.491753 32
-4.664981 9.735424 -1.354205 17
-4.945924 9.534069 -0.269998 22
-4.566727 9.534421 -0.774480 84
-4.578370 9.562789 -0.613180 52
-4.649733 9.715971 -0.125962 34
-4.234579 9.626679 -0.953409 27
-4.672578 9.767857 0.039687 15
-4.289596 9.756130 -0.472772 46
-4.300050 9.784299 -0.309730 28
-4.320522 9.849019 -0.146423 30
-4.854947 9.397079 -0.754467 27
-4.341775 9.901918 0.018870 25
-4.872797 9.435456 -0.593718 45
-3.982500 9.934363 -0.330742 13
-4.507723 9.455767 -1.091753 55
-4.950166 9.589160 -0.105478 24
-4.524838 9.495712 -0.933216 39
-4.574759 9.604565 -0.451462 65
-4.609988 9.682653 -0.290185 22
-4.222270 9.651070 -0.792075 35
-4.659078 9.789932 0.206285 25
-5.203123 9.358921 -0.413233 100
-4.252246 9.723969 -0.634250 47
-5.227354 9.406171 -0.249841 19
-3.928174 9.836517 -0.653393 16
-4.342408 9.943588 0.185606 9
-4.884287 9.492341 -0.432494 24
-3.943135 9.878726 -0.492307 28
-4.615647 9.719381 -1.349725 8
-4.912614 9.551275 -0.269998 25
-4.536839 9.557511 -0.775064 84
-4.548385 9.585928 -0.613642 46
-4.614076 9.728529 -0.125915 38
-4.199358 9.637750 -0.953048 24
-4.635026 9.776878 0.039657 16
-4.258706 9.778372 -0.473127 46
-4.275445 9.821245 -0.310426 28
-4.811728 9.378001 -0.914749 8
-4.286117 9.864040 -0.146423 29
-4.813021 9.396213 -0.753044 31
-4.303997 9.909676 0.018857 22
-4.843472 9.459518 -0.594164 43
-3.944849 9.940772 -0.330495 14
-4.469591 9.460652 -1.090509 58
-4.920309 9.613503 -0.105556 26
-4.495067 9.518655 -0.933923 41
-4.542911 9.624089 -0.451632 67
-4.574455 9.695070 -0.290077 20
-4.186970 9.662089 -0.791775 37
-4.624876 9.806136 0.206285 24
-5.164632 9.366526 -0.412770 58
-4.215103 9.731424 -0.633773 43
-5.175185 9.389338 -0.248913 56
-3.896750 9.857594 -0.653886 18
-4.836593 9.480851 -0.431199 26
-3.904223 9.881281 -0.491753 32
-4.580002 9.731843 -1.349227 24
-4.882877 9.575490 -0.270199 21
-4.500053 9.566071 -0.774480 88
-4.513197 9.598133 -0.613411 46
-4.578387 9.740956 -0.125868 35
-4.186212 9.699898 -0.957743 8
-4.612776 9.818341 0.039760 16
-4.218215 9.778501 -0.472418 51
-4.236388 9.825095 -0.310078 24
-4.778963 9.394740 -0.914749 14
-4.245433 9.864204 -0.146205 28
-4.778480 9.409350 -0.752759 32
-4.275764 9.939310 0.018884 25
-4.805058 9.465653 -0.593494 46
-4.446684 9.497805 -1.092997 58
-4.877695 9.612773 -0.105360 29
-4.456733 9.523467 -0.932863 37
-4.504158 9.629052 -0.451123 63
-4.535416 9.700154 -0.289752 22
-4.156239 9.684031 -0.792375 33
-4.592185 9.825902 0.206361 26
-5.126031 9.374043 -0.412307 62
-4.187242 9.760826 -0.634727 48
-5.155648 9.431994 -0.249562 52
-3.860584 9.867528 -0.653639 15
-4.814024 9.519211 -0.432171 23
-3.869390 9.894973 -0.491753 27
-4.537304 9.729932 -1.346737 20
-4.841899 9.578357 -0.269797 24
-4.459549 9.567417 -0.773311 91
-4.479284 9.614006 -0.613411 45
-4.540555 9.749825 -0.125775 36
-4.566194 9.809215 0.039657 16
-5.090915 9.343606 -0.574407 8
-4.185126 9.797054 -0.472595 46
-4.199955 9.836376 -0.309962 30
-4.738446 9.397392 -0.913366 16
-4.210975 9.878963 -0.146205 30
-4.749195 9.433101 -0.753328 32
-4.244179 9.961535 0.018898 24
-4.777374 9.493072 -0.594164 47
-4.406806 9.498833 -1.091338 57
-4.842312 9.626167 -0.105321 25
-4.430168 9.553425 -0.934277 40
-4.873183 9.691621 0.060586 4
-4.468838 9.641090 -0.450954 71
-4.496486 9.705042 -0.289428 23
-4.120849 9.694809 -0.792075 37
-4.556178 9.838243 0.206285 29
-5.097089 9.398906 -0.412616 52
-4.148461 9.764358 -0.634011 47
-5.122693 9.449933 -0.249562 47
-4.778975 9.532384 -0.432009 25
-3.834827 9.908420 -0.491753 33
-4.503313 9.745710 -1.346737 25
-4.810226 9.598775 -0.269897 24
-4.429471 9.590169 -0.773895 80
-4.445698 9.629583 -0.613411 46
-4.508171 9.769246 -0.125821 34
-4.531926 9.825094 0.039657 15
-5.060168 9.364834 -0.574622 50
-4.157130 9.826324 -0.473304 40
-4.682580 9.363832 -1.070826 7
-4.170266 9.862025 -0.310310 25
-4.714523 9.431698 -0.915095 15
-4.179576 9.900971 -0.146314 27
-4.712675 9.442481 -0.752759 35
-4.737076 9.495395 -0.593271 48
-4.373622 9.514157 -1.091338 52
-4.810466 9.646591 -0.105360 25
-4.393466 9.561590 -0.933570 43
-4.846461 9.722892 0.060676 27
-4.436825 9.660262 -0.451123 76
-4.465918 9.727946 -0.289644 21
-4.088531 9.712811 -0.792375 35
-4.538487 9.890436 0.207046 33
-5.069930 9.427201 -0.413078 53
-4.125191 9.804542 -0.635682 39
-5.089675 9.467757 -0.249562 47
-4.742114 9.541850 -0.431685 26
-3.807363 9.940402 -0.492677 22
-4.470919 9.764979 -1.347235 35
-4.782028 9.626250 -0.270199 24
-4.394308 9.601945 -0.773603 80
-4.415380 9.652306 -0.613873 44
-4.474042 9.784923 -0.125821 41
-4.495940 9.837215 0.039643 17
-5.023674 9.375399 -0.574191 40
-4.121260 9.837090 -0.473127 50
-4.644564 9.369425 -1.069605 100
-4.135816 9.876522 -0.310310 26
-4.685110 9.455239 -0.915787 14
-4.141852 9.908142 -0.146205 27
-4.679635 9.458899 -0.752759 36
-4.702101 9.508308 -0.593048 46
-4.389845 9.637989 -1.103777 14
-4.778524 9.666915 -0.105399 24
-4.360071 9.576864 -0.933570 42
-4.801868 9.718230 0.060542 26
-4.406415 9.682954 -0.451462 67
-4.435292 9.750734 -0.289860 19
-4.051599 9.719632 -0.791775 38
-4.497383 9.891624 0.206741 31
-5.029532 9.430699 -0.412461 53
-4.087957 9.811474 -0.635205 39
-5.049155 9.471306 -0.249191 49
-4.705389 9.551104 -0.431361 25
-3.777059 9.964777 -0.493232 3
-4.436972 9.780451 -1.347235 29
-4.743261 9.632042 -0.269897 25
-4.364242 9.624409 -0.774188 84
-4.373621 9.649382 -0.612719 48
-4.440085 9.800378 -0.125821 37
-4.473372 9.878243 0.039745 16
-4.993028 9.396279 -0.574407 35
-4.087164 9.851305 -0.473127 50
-4.629634 9.421168 -1.073675 101
-4.101603 9.890779 -0.310310 24
-4.643568 9.453516 -0.914058 16
-4.107241 9.922540 -0.146205 27
-4.648346 9.478759 -0.753044 35
-4.667124 9.521077 -0.592824 50
-4.431451 9.820065 -1.122851 4
-4.737712 9.669169 -0.105243 26
-4.329891 9.599289 -0.934277 43
-4.766157 9.731340 0.060519 26
-4.366018 9.683702 -0.450784 69
-4.394657 9.751575 -0.289428 20
-4.020690 9.741089 -0.792375 33
-4.462827 9.907263 0.206741 33
-4.992846 9.441132 -0.412153 54
-4.052161 9.821993 -0.634966 43
-4.772845 9.761520 -1.305296 16
-5.021669 9.499479 -0.249470 48
-4.673774 9.571062 -0.431523 23
-4.412567 9.817599 -1.350222 28
-4.711364 9.652134 -0.269998 24
-4.333889 9.646862 -0.774772 86
-4.348091 9.682804 -0.613873 48
-4.405849 9.815817 -0.125821 36
-4.944047 9.379197 -0.735820 95
-4.429039 9.871902 0.039657 17
-4.958336 9.410117 -0.574191 41
-4.055789 9.872905 -0.473481 43
-4.600205 9.444427 -1.074489 101
-5.032794 9.555302 -0.084822 4
-4.067053 9.905036 -0.310310 25
-4.612285 9.473250 -0.914404 16
-4.065209 9.913902 -0.145878 15
-4.615143 9.490533 -0.752759 36
-4.637271 9.540093 -0.593048 48
-4.710865 9.695620 -0.105360 23
-4.298035 9.613595 -0.934277 49
-4.740850 9.761484 0.060609 26
-4.342034 9.716372 -0.451632 80
-4.363926 9.769746 -0.289536 22
-3.997423 9.776521 -0.794175 16
-4.438101 9.940267 0.207122 29
-4.967081 9.468255 -0.412616 50
-4.025610 9.850161 -0.635920 42
-4.716192 9.727264 -1.298617 19
-4.993855 9.523163 -0.249655 50
-4.636784 9.575716 -0.431037 25
-4.402596 9.882935 -1.357193 30
-4.677589 9.664104 -0.269897 25
-4.298630 9.653893 -0.774188 84
-4.314333 9.693521 -0.613642 45
-4.374899 9.834028 -0.125868 38
-4.903673 9.377860 -0.734436 101
-4.396278 9.886535 0.039657 16
-4.923403 9.419429 -0.573760 43
-4.018508 9.875196 -0.472949 45
-4.560208 9.441713 -1.072454 100
-4.995523 9.561303 -0.084728 23
-4.034184 9.918468 -0.310310 26
-4.584311 9.495670 -0.915095 16
-4.580378 9.507360 -0.752759 32
-4.604038 9.560609 -0.593271 50
-4.675310 9.712815 -0.105360 21
-4.259537 9.622000 -0.933570 55
-4.699830 9.767985 0.060542 29
-4.303132 9.724923 -0.451293 71
-4.324808 9.778381 -0.289319 23
-4.382165 9.912603 0.206209 27
-4.930436 9.482884 -0.412461 53
-3.981908 9.846376 -0.634727 44
-4.640874 9.662189 -1.287644 26
-4.956988 9.537897 -0.249562 47
-4.601512 9.592715 -0.431037 25
-4.638515 9.674051 -0.269696 22
-4.258206 9.658712 -0.773311 93
-4.278572 9.709359 -0.613642 45
-4.340212 9.853757 -0.125915 40
-4.861708 9.381711 -0.733328 100
-4.361376 9.906352 0.039672 15
-4.888609 9.437533 -0.573760 48
-3.989481 9.908501 -0.473836 42
-4.515011 9.436949 -1.070012 95
-4.971221 9.600994 -0.084916 23
-3.997514 9.933304 -0.310310 26
-4.537164 9.487376 -0.912674 18
-4.550545 9.526097 -0.753044 34
-4.567146 9.565012 -0.592601 51
-4.639630 9.721046 -0.105282 24
-4.219602 9.617829 -0.931802 58
-4.670857 9.790737 0.060586 31
-4.269254 9.735479 -0.451123 71
-4.298779 9.807319 -0.289752 21
-4.846454 9.393464 -0.896879 6
-4.363714 9.960049 0.206894 13
-4.897130 9.495629 -0.412307 52
-3.949234 9.859527 -0.634727 44
-4.625883 9.713381 -1.292415 13
-4.912506 9.529402 -0.248913 48
-4.571393 9.611531 -0.431199 25
-4.604692 9.685769 -0.269596 23
-4.232542 9.687403 -0.774480 86
-4.684170 9.857248 0.228607 18
-4.246351 9.723494 -0.613642 48
-4.304311 9.860765 -0.125821 41
-4.832394 9.401330 -0.733605 101
-4.336499 9.939091 0.039745 17
-4.851810 9.443034 -0.573113 49
-3.950681 9.906828 -0.473127 43
-4.483692 9.451869 -1.070012 100
-4.939356 9.617427 -0.084916 24
-3.971955 9.965076 -0.310889 26
-4.517630 9.527575 -0.915095 19
-4.510436 9.527498 -0.751905 37
-4.537147 9.588116 -0.593048 48
-4.612510 9.751645 -0.105439 25
-4.193944 9.650771 -0.933570 49
-4.634943 9.803366 0.060564 29
-4.243206 9.768650 -0.451971 65
-4.261333 9.814929 -0.289536 22
-4.797299 9.378388 -0.893835 30
-4.856676 9.498431 -0.411690 54
-3.914794 9.873252 -0.634727 43
-4.586864 9.718695 -1.290983 18
-4.877392 9.542932 -0.248820 50
-4.532703 9.616584 -0.430713 24
-4.569150 9.698166 -0.269495 24
-4.195532 9.694796 -0.773895 78
-4.639510 9.851831 0.228105 19
-4.209213 9.730927 -0.613180 48
-4.273039 9.883072 -0.125915 38
-4.804984 9.428807 -0.734436 101
-4.295432 9.939481 0.039687 16
-4.818819 9.459913 -0.573113 42
-3.919010 9.927993 -0.473481 47
-4.459136 9.485469 -1.072047 99
-4.900310 9.623917 -0.084822 25
-3.935678 9.975162 -0.310773 4
-4.474176 9.521646 -0.913020 20
-4.480444 9.550454 -0.752475 36
-4.500199 9.596691 -0.592601 51
-4.571628 9.753210 -0.105282 24
-4.166546 9.679984 -0.934984 22
-4.597315 9.812234 0.060519 32
-4.205974 9.776038 -0.451632 73
-4.225556 9.826032 -0.289428 24
-4.757407 9.380815 -0.892483 35
-4.829035 9.525959 -0.412153 54
-3.883389 9.894226 -0.635205 43
-4.553074 9.734570 -1.290983 19
-4.847826 9.566952 -0.249005 49
-4.499379 9.632221 -0.430713 23
-4.533888 9.710287 -0.269395 24
-4.158870 9.701900 -0.773311 76
-4.598681 9.853306 0.227770 18
-4.178752 9.752736 -0.613642 43
-4.235796 9.890389 -0.125821 36
-4.777851 9.455999 -0.735267 101
-4.256459 9.943181 0.039643 14
-4.780814 9.465754 -0.572466 43
-3.880476 9.930247 -0.472949 57
-4.419762 9.486322 -1.070419 99
-4.863574 9.633573 -0.084759 26
-4.444801 9.544187 -0.913712 19
-4.448762 9.569654 -0.752759 36
-4.471722 9.623207 -0.593271 48
-4.537555 9.769109 -0.105282 22
-4.561351 9.824594 0.060497 31
-4.173390 9.794336 -0.451801 69
-4.194365 9.848080 -0.289644 23
-4.738955 9.425852 -0.895188 30
-4.788575 9.528472 -0.411536 50
-3.843045 9.892834 -0.634250 42
-4.514056 9.739594 -1.289552 18
-4.825172 9.605255 -0.249562 46
-4.470765 9.658749 -0.431199 25
-4.505003 9.736942 -0.269696 22
-4.126537 9.720030 -0.773603 84
-4.569294 9.880187 0.228021 18
-4.146243 9.770939 -0.613873 41
-4.202808 9.908797 -0.125868 35
-4.744814 9.472619 -0.735267 101
-4.758473 9.503814 -0.573760 44
-3.848672 9.951186 -0.473304 50
-4.388290 9.505305 -1.070826 100
-4.826336 9.643337 -0.084696 26
-4.408119 9.552407 -0.913020 19
-4.411992 9.577877 -0.752190 35
-4.434763 9.631502 -0.592824 48
-4.500082 9.777621 -0.105204 24
-4.532044 9.851357 0.060564 31
-4.143837 9.819891 -0.452310 62
-4.688465 9.403208 -1.054318 24
-4.161517 9.866344 -0.289752 22
-4.700691 9.431635 -0.894173 32
-4.760632 9.555862 -0.411999 54
-3.812788 9.917369 -0.634966 23
