# This PCD file was generated using the MATLAB® pcwrite function
# from Computer Vision Toolbox®.
# .PCD v.7 - Point Cloud Data file format
VERSION .7
FIELDS x y z intensity
SIZE 4 4 4 1
TYPE F F F U
COUNT 1 1 1 1
WIDTH 1505
HEIGHT 1
VIEWPOINT 0 0 0 1 0 0 0
POINTS 1505
DATA ascii
1.708975 7.444952 -0.870306 101
1.519780 7.730547 -0.152651 101
1.001145 7.619691 -0.592692 101
1.734378 7.549732 -0.522663 101
1.303130 7.943905 -1.310173 19
1.743520 7.583621 -0.405086 101
1.232532 7.505554 -0.837032 101
1.775842 7.718198 -0.046998 86
1.255589 7.637838 -0.492407 101
1.260562 7.659955 -0.374241 101
1.481786 7.503585 -0.737814 101
0.763002 7.628295 -0.576436 31
1.494361 7.560500 -0.624133 101
1.724068 7.458353 -0.753280 101
1.534992 7.745296 -0.031696 101
1.015461 7.638148 -0.475329 66
1.742115 7.530591 -0.640911 37
1.549452 7.811295 0.090347 101
1.020766 7.668075 -0.358042 101
1.766235 7.628949 -0.287140 101
1.248576 7.531171 -0.721623 101
1.780957 7.686587 -0.168032 74
1.258052 7.580342 -0.607445 101
1.502946 7.556650 -1.406565 36
1.278970 7.698278 -0.256152 93
1.486997 7.469818 -0.852969 101
1.288646 7.748376 -0.137106 84
1.515422 7.605859 -0.508313 76
1.523532 7.639786 -0.390546 101
1.011033 7.536182 -0.821998 101
1.535390 7.675209 -0.271967 101
1.016062 7.539301 -0.704384 101
1.734952 7.438941 -0.870306 101
1.545970 7.721274 -0.152573 101
1.025070 7.596388 -0.591154 101
1.759814 7.539745 -0.522394 101
1.304743 7.783559 -1.284471 13
1.771799 7.585268 -0.405501 101
1.259382 7.505127 -0.837470 101
1.806415 7.727531 -0.047093 90
1.280920 7.625535 -0.491899 101
1.286630 7.651568 -0.374048 101
1.508755 7.502271 -0.738198 101
0.790036 7.629553 -0.576736 101
1.516810 7.535695 -0.622519 101
1.748272 7.444539 -0.752496 101
1.562810 7.743812 -0.031713 101
1.041577 7.630601 -0.475083 77
1.769303 7.528345 -0.641242 33
1.575125 7.797998 0.090256 101
1.051314 7.692178 -0.359336 101
1.792855 7.622737 -0.287140 101
1.277517 7.542472 -0.723128 101
1.806861 7.676431 -0.167947 75
1.285171 7.579835 -0.607760 101
1.471516 7.265964 -1.353406 101
1.307172 7.701650 -0.256414 100
1.513062 7.464582 -0.852969 101
1.313006 7.728059 -0.136827 87
1.543550 7.608347 -0.508836 67
1.550986 7.638336 -0.390746 100
1.036791 7.528667 -0.821568 101
1.560628 7.661958 -0.271689 101
1.041332 7.527811 -0.703646 101
1.759107 7.425098 -0.869401 101
1.571348 7.707987 -0.152418 101
1.051612 7.592759 -0.591154 101
1.789816 7.549087 -0.523471 101
1.324588 7.736150 -1.277403 13
1.798258 7.579039 -0.405501 101
1.282207 7.481092 -0.835282 101
1.832426 7.717294 -0.047069 85
1.306828 7.617087 -0.491645 101
1.313285 7.647038 -0.374048 101
1.534868 7.496972 -0.738198 101
0.814898 7.610892 -0.575537 101
1.547822 7.553807 -0.624456 101
1.775954 7.446168 -0.753280 101
1.589685 7.738339 -0.031713 101
1.067508 7.622985 -0.474837 77
1.793559 7.514407 -0.640581 37
1.608612 7.823829 0.090619 100
1.076884 7.680570 -0.358966 101
1.820197 7.620364 -0.287287 101
1.304335 7.541923 -0.723505 101
1.834371 7.674016 -0.168032 70
1.310060 7.567480 -0.607130 101
1.496658 7.260827 -1.353406 101
1.331092 7.681323 -0.255889 101
1.538872 7.459304 -0.852969 101
1.339045 7.719531 -0.136757 78
0.828325 7.627693 -0.695555 17
1.569030 7.599057 -0.508575 57
1.576549 7.629021 -0.390546 100
1.061674 7.517166 -0.820708 101
1.589798 7.668207 -0.272106 101
1.069281 7.535960 -0.704752 101
1.787804 7.430505 -0.870759 101
1.599869 7.710287 -0.152573 101
1.076426 7.577197 -0.590231 101
1.816157 7.542793 -0.523471 101
1.344786 7.692588 -1.270977 13
1.827510 7.584366 -0.406125 101
1.310369 7.488321 -0.836594 101
1.860291 7.714739 -0.047093 61
1.334098 7.616411 -0.491899 101
1.340660 7.646343 -0.374241 101
1.565089 7.511057 -0.740118 101
0.840583 7.600072 -0.574937 101
1.573367 7.544455 -0.624133 101
1.804746 7.451530 -0.754455 101
1.617506 7.736659 -0.031729 101
1.092409 7.607357 -0.474098 80
1.821656 7.515849 -0.641242 33
1.631817 7.798591 0.090392 100
1.100276 7.653034 -0.357857 101
1.845844 7.610079 -0.287140 101
1.329268 7.529480 -0.722752 101
1.863034 7.675338 -0.168202 75
1.339937 7.582494 -0.608706 101
1.530073 7.294069 -1.360590 101
1.361379 7.696313 -0.256545 101
1.566534 7.461668 -0.853859 101
1.367378 7.722686 -0.136897 82
0.854946 7.624755 -0.695555 100
1.592263 7.577909 -0.507528 65
1.603992 7.627381 -0.390746 100
1.089617 7.525221 -0.821998 101
1.611920 7.647246 -0.271550 101
1.093693 7.528431 -0.704384 101
1.809607 7.412952 -0.869401 101
1.623777 7.697113 -0.152418 101
1.103269 7.585425 -0.591154 101
1.840212 7.532852 -0.523201 101
1.355047 7.602577 -1.256841 15
1.854548 7.586025 -0.406541 101
1.335194 7.483934 -0.836594 101
1.359347 7.611946 -0.491899 101
1.365306 7.637922 -0.374048 101
1.588338 7.498036 -0.739350 101
1.385782 7.744983 -0.016479 6
0.868040 7.617058 -0.576436 101
1.598376 7.539196 -0.624133 101
1.830396 7.449370 -0.754847 101
1.641489 7.723427 -0.031696 101
1.119371 7.615542 -0.474837 80
1.848473 7.517509 -0.641903 37
1.655172 7.781401 0.090256 100
1.123903 7.637484 -0.357302 101
1.872025 7.607798 -0.287287 101
1.355640 7.532870 -0.723505 101
1.885607 7.657468 -0.167947 70
1.363660 7.570160 -0.608075 101
1.553432 7.285107 -1.359871 101
1.385475 7.683887 -0.256283 100
1.592099 7.460319 -0.854304 101
1.390848 7.706301 -0.136687 89
0.878855 7.610006 -0.694472 101
1.621552 7.592105 -0.508836 66
1.631781 7.633740 -0.391347 100
1.115732 7.529435 -0.822858 101
1.641977 7.657204 -0.272106 101
1.120572 7.528504 -0.704752 101
1.838352 7.418160 -0.870759 101
1.651487 7.695305 -0.152496 101
1.129753 7.581526 -0.591154 101
1.868422 7.534129 -0.523740 101
1.344852 7.395813 -1.223428 30
1.153300 7.730715 -0.241540 48
1.881976 7.583383 -0.406749 101
1.364866 7.498787 -0.838782 101
1.386614 7.611084 -0.492153 101
1.394091 7.644905 -0.374626 101
1.616153 7.500236 -0.740118 101
1.416373 7.759778 -0.016521 100
0.895528 7.621908 -0.577036 101
1.626331 7.541372 -0.624779 101
0.907524 7.712937 -0.464115 66
1.852479 7.427500 -0.753280 101
1.670917 7.729392 -0.031745 101
1.147674 7.623441 -0.475576 72
1.871743 7.499423 -0.640911 42
1.682258 7.775590 0.090256 100
1.154659 7.661182 -0.358597 101
1.899466 7.605113 -0.287433 101
1.380417 7.520271 -0.722752 101
1.911275 7.646980 -0.167861 73
1.390717 7.569291 -0.608391 101
1.585440 7.310423 -1.365618 101
1.414369 7.690816 -0.256677 100
1.618037 7.454737 -0.854304 101
1.419091 7.709284 -0.136827 92
0.903435 7.591080 -0.693027 100
1.649635 7.594222 -0.509360 69
1.655761 7.616311 -0.390746 100
1.141301 7.521579 -0.822428 101
1.665289 7.635802 -0.271550 101
1.148044 7.532422 -0.705490 101
1.866174 7.419407 -0.871665 101
1.685161 7.720751 -0.153116 101
1.158617 7.593307 -0.592384 101
1.897632 7.539172 -0.524548 101
1.367781 7.375546 -1.220858 29
1.177259 7.706881 -0.240922 65
1.907460 7.572894 -0.406541 101
1.389583 7.486159 -0.837907 101
1.412444 7.602272 -0.491899 101
1.421498 7.643920 -0.374819 101
1.641472 7.490660 -0.739734 101
1.441255 7.742990 -0.016495 70
0.922128 7.618735 -0.577036 101
1.651791 7.531755 -0.624456 101
0.933962 7.705758 -0.463876 100
1.883278 7.440284 -0.755238 101
1.697887 7.723512 -0.031745 101
1.173669 7.615442 -0.475329 75
1.902804 7.512165 -0.642564 36
1.709390 7.769670 0.090256 100
1.183223 7.668952 -0.359151 101
1.927966 7.606186 -0.287726 101
1.408857 7.527150 -0.723881 101
1.940906 7.651891 -0.168117 70
1.414928 7.552632 -0.607445 101
1.611796 7.308687 -1.366336 101
1.442680 7.693691 -0.256939 101
0.927745 7.580523 -0.810777 3
1.646619 7.460688 -0.855640 101
1.448206 7.716075 -0.137036 92
0.932350 7.607651 -0.694833 100
1.676134 7.588417 -0.509360 71
1.682337 7.610485 -0.390746 100
1.166939 7.513619 -0.821998 101
1.694529 7.641651 -0.271967 101
1.174330 7.528369 -0.705490 101
1.894027 7.420549 -0.872570 101
1.706903 7.691397 -0.152651 101
1.183885 7.581335 -0.591769 101
1.924925 7.536368 -0.524817 101
1.401586 7.413399 -1.227926 92
1.206624 7.718525 -0.241416 67
1.935861 7.573930 -0.406957 101
1.420141 7.504703 -0.840532 101
1.440458 7.605140 -0.492407 101
1.446684 7.631060 -0.374434 101
1.671072 7.500429 -0.741270 101
1.466037 7.726122 -0.016470 64
0.949210 7.619428 -0.577336 101
1.678939 7.529835 -0.624779 101
0.958877 7.686603 -0.462921 80
1.910229 7.437520 -0.755630 101
1.722220 7.705827 -0.031696 101
1.199001 7.603412 -0.474837 77
1.928022 7.501616 -0.642234 36
1.739120 7.775366 0.090392 40
1.209362 7.660828 -0.358966 101
1.956496 7.607152 -0.288020 101
1.436616 7.530009 -0.724634 101
1.965611 7.637324 -0.167947 50
1.442779 7.555481 -0.608075 101
1.469527 7.688608 -0.256939 100
0.951715 7.557506 -0.808665 84
1.674392 7.462653 -0.856530 101
1.476635 7.718830 -0.137176 100
0.958900 7.604350 -0.694833 96
1.699989 7.570837 -0.508575 61
1.708892 7.604566 -0.390746 100
1.193160 7.509500 -0.821998 101
1.722915 7.643497 -0.272245 101
1.201194 7.528162 -0.705859 101
1.918900 7.410051 -0.872118 101
1.735478 7.693199 -0.152806 101
1.209690 7.573222 -0.591461 101
1.950210 7.525742 -0.524548 101
1.420724 7.373573 -1.222143 99
1.230394 7.694528 -0.240798 56
1.963295 7.570992 -0.407165 101
1.441817 7.476274 -0.837907 101
1.467015 7.600061 -0.492407 101
1.476376 7.641649 -0.375204 101
1.695530 7.486773 -0.740502 101
1.496082 7.736657 -0.016504 82
0.976861 7.623975 -0.577936 101
1.711441 7.551133 -0.627039 101
0.988304 7.703003 -0.464115 82
1.938285 7.438486 -0.756414 101
1.752754 7.715348 -0.031761 101
1.228179 7.614930 -0.475822 88
1.953303 7.490954 -0.641903 31
1.235575 7.652596 -0.358782 101
1.983166 7.600243 -0.288020 101
1.463019 7.524924 -0.724634 101
1.473855 7.573856 -0.609967 101
1.494985 7.675553 -0.256677 100
0.978756 7.558063 -0.809087 97
1.702366 7.464476 -0.857420 101
1.505272 7.721446 -0.137316 100
0.986120 7.604885 -0.695194 100
1.727476 7.568706 -0.508836 66
1.206058 7.430064 -1.105094 4
1.736513 7.602404 -0.390947 101
1.220835 7.513109 -0.822858 101
1.746907 7.625746 -0.271828 101
1.224900 7.508200 -0.704384 101
1.948793 7.418683 -0.873929 101
1.765896 7.702687 -0.153116 100
1.238690 7.584697 -0.592692 101
1.974439 7.511169 -0.524009 101
1.442651 7.349198 -1.218930 100
1.259826 7.705969 -0.241292 58
1.990727 7.567955 -0.407373 101
1.472504 7.494604 -0.840532 101
1.495076 7.602728 -0.492915 101
1.501498 7.628609 -0.374819 101
1.724333 7.492450 -0.741654 101
1.526172 7.747086 -0.016537 93
1.000864 7.600746 -0.576436 101
1.730631 7.514031 -0.624456 101
1.537402 7.797178 0.105423 6
1.013098 7.683671 -0.463160 80
1.966273 7.439372 -0.757197 101
1.779675 7.709182 -0.031761 101
1.252804 7.598779 -0.475083 86
1.980459 7.487944 -0.642234 37
1.262280 7.648237 -0.358782 101
2.010707 7.597138 -0.288166 101
1.486956 7.508052 -0.723505 101
1.497182 7.553019 -0.608706 101
1.523324 7.678131 -0.256939 100
1.004083 7.546714 -0.808243 84
1.726616 7.450743 -0.856530 101
1.531436 7.712222 -0.137246 100
1.011608 7.593499 -0.694472 100
1.755689 7.570406 -0.509360 66
1.230691 7.418001 -1.103932 101
1.028192 7.708079 -0.344962 16
1.763040 7.596296 -0.390947 100
1.246402 7.504879 -0.822428 101
1.774422 7.623496 -0.271967 101
1.253066 7.515665 -0.705490 101
1.975700 7.415675 -0.874382 101
1.793680 7.700371 -0.153193 101
1.264501 7.576393 -0.592384 101
2.007842 7.531225 -0.525894 101
1.471392 7.359603 -1.221501 100
1.287376 7.705468 -0.241416 54
2.023310 7.584118 -0.408621 101
1.497096 7.481621 -0.839657 101
1.298368 7.763226 -0.122274 76
1.519254 7.585721 -0.492153 101
1.527333 7.619403 -0.374626 101
1.750476 7.486385 -0.741654 101
1.553991 7.745634 -0.016546 100
1.029527 7.613017 -0.577636 101
1.759574 7.519591 -0.625425 101
1.558311 7.760393 0.104999 38
1.040985 7.688002 -0.463637 96
1.989137 7.420928 -0.756022 101
1.809314 7.714606 -0.031809 101
1.281310 7.606170 -0.475822 79
2.007617 7.484836 -0.642564 36
1.291627 7.659544 -0.359521 101
2.036177 7.586213 -0.288020 101
1.516304 7.518431 -0.725010 101
0.795327 7.646146 -0.563178 101
1.524327 7.551656 -0.609021 101
1.547742 7.661010 -0.256545 100
1.029343 7.535281 -0.807398 89
1.754436 7.452409 -0.857420 101
1.559140 7.710749 -0.137316 100
1.038108 7.589921 -0.694472 100
1.785765 7.579772 -0.510406 62
1.257900 7.421463 -1.105094 101
1.060514 7.744034 -0.346735 100
1.791378 7.597872 -0.391347 100
1.275252 7.516165 -0.824147 101
1.800667 7.621447 -0.272106 101
1.278037 7.511458 -0.705490 101
1.999279 7.405237 -0.873929 101
1.822922 7.709939 -0.153503 101
1.290992 7.580016 -0.592999 101
2.028655 7.509110 -0.524817 101
1.498163 7.366287 -1.223428 100
1.312263 7.697213 -0.241292 56
2.048441 7.577369 -0.408621 101
1.521097 7.472721 -0.839220 101
1.322751 7.750994 -0.122150 71
0.805155 7.607462 -0.678703 23
1.547559 7.596293 -0.493169 101
1.552541 7.614307 -0.374626 101
1.775221 7.480556 -0.741654 101
1.581195 7.748291 -0.016562 100
1.053052 7.597718 -0.576736 101
1.786251 7.521494 -0.626071 101
1.587143 7.770877 0.105211 39
1.065830 7.680566 -0.463399 100
2.014625 7.418174 -0.756414 101
1.833802 7.704710 -0.031793 101
1.305693 7.597971 -0.475576 77
2.035387 7.489725 -0.643556 37
1.316163 7.651312 -0.359336 101
2.066368 7.598760 -0.288752 101
1.543431 7.525105 -0.726140 101
0.822180 7.659354 -0.564347 100
1.549943 7.550510 -0.609336 101
1.574503 7.663718 -0.256808 100
1.053534 7.527921 -0.806976 98
1.778881 7.446612 -0.857420 101
1.585240 7.709509 -0.137385 100
1.061350 7.574638 -0.693388 100
1.810607 7.573876 -0.510406 65
1.278181 7.393901 -1.101608 101
1.082567 7.716772 -0.345671 100
1.817188 7.595849 -0.391547 100
1.297833 7.500191 -0.822858 101
1.830991 7.630664 -0.272661 101
1.304931 7.510876 -0.705859 101
2.025115 7.398213 -0.873929 101
1.842353 7.672420 -0.152883 101
1.316760 7.571534 -0.592692 101
2.058017 7.513531 -0.525625 101
1.524667 7.364879 -1.224071 100
1.338437 7.688647 -0.241169 59
2.071711 7.558615 -0.407997 101
1.549592 7.479046 -0.840532 101
1.345680 7.722688 -0.121777 63
0.836037 7.644213 -0.682238 101
1.574876 7.594754 -0.493423 101
1.579110 7.608841 -0.374626 101
1.801322 7.474314 -0.741654 101
1.606605 7.734891 -0.016546 100
1.077883 7.582149 -0.575837 101
1.812495 7.515213 -0.626071 101
1.618329 7.784869 0.105476 43
1.091509 7.668892 -0.462921 100
2.045791 7.430286 -0.758372 101
1.332897 7.597300 -0.475822 93
2.061519 7.482574 -0.643556 36
1.342172 7.642736 -0.359151 101
2.087568 7.572232 -0.288020 88
1.570502 7.523570 -0.726516 101
0.850670 7.672298 -0.565516 101
1.578736 7.556764 -0.610282 101
1.603699 7.669915 -0.257201 100
1.080370 7.528135 -0.807398 100
1.808612 7.455810 -0.859201 101
1.608045 7.684355 -0.137036 100
1.088350 7.574831 -0.693750 100
1.832325 7.548116 -0.509098 64
1.297793 7.354318 -1.096379 101
1.104945 7.681303 -0.344253 100
1.841805 7.581695 -0.391147 100
1.324697 7.499532 -0.823288 101
1.858562 7.628110 -0.272800 101
1.331141 7.506275 -0.705859 101
2.055178 7.406417 -0.875740 101
1.875755 7.693140 -0.153426 101
1.344576 7.574745 -0.593307 101
2.087435 7.517838 -0.526433 101
1.553621 7.374965 -1.226641 100
1.367366 7.695737 -0.241540 57
2.100221 7.559035 -0.408413 101
1.575689 7.473591 -0.840532 101
1.373329 7.721882 -0.121839 63
0.859586 7.613534 -0.679763 101
1.601377 7.589210 -0.493423 101
1.607311 7.611101 -0.375011 101
1.828348 7.471848 -0.742039 101
1.632768 7.725323 -0.016537 97
1.105493 7.586234 -0.576436 101
1.841561 7.520459 -0.627039 101
1.644666 7.775260 0.105423 45
1.120001 7.676889 -0.463637 87
2.073855 7.430768 -0.759156 101
1.362926 7.612250 -0.477053 85
2.088698 7.479172 -0.643886 33
1.370251 7.645870 -0.359521 101
1.595928 7.514146 -0.726140 101
0.875632 7.653428 -0.564347 101
1.604275 7.547307 -0.609967 101
1.632958 7.676001 -0.257595 101
1.107799 7.532188 -0.808243 101
1.836528 7.457170 -0.860092 101
1.638191 7.694342 -0.137316 101
1.116526 7.582809 -0.694833 98
1.862483 7.557176 -0.510144 61
1.332574 7.400377 -1.103932 101
1.131168 7.673446 -0.344076 100
1.871129 7.586856 -0.391748 100
1.350867 7.494862 -0.823288 101
1.887981 7.633237 -0.273217 100
1.357969 7.505516 -0.706227 101
2.079897 7.395385 -0.875287 101
1.901589 7.682675 -0.153348 101
1.369540 7.562165 -0.592692 101
2.115809 7.518194 -0.526971 101
1.577683 7.361780 -1.225356 100
1.392776 7.683053 -0.241292 66
2.130936 7.567035 -0.409245 100
1.602612 7.471931 -0.840970 101
1.401714 7.724909 -0.121964 63
0.884786 7.598613 -0.678703 101
1.628736 7.587469 -0.493677 101
1.634778 7.609335 -0.375204 101
1.860274 7.488581 -0.744343 101
1.662346 7.731287 -0.016562 95
1.132654 7.586259 -0.576736 101
1.866965 7.510084 -0.626716 101
1.671926 7.769444 0.105423 41
1.145149 7.661067 -0.462921 98
2.099990 7.423424 -0.759156 101
1.387552 7.595625 -0.476314 84
2.118289 7.483275 -0.644878 31
1.397895 7.644927 -0.359706 101
1.623257 7.512364 -0.726516 101
1.426612 7.794520 -0.001383 69
0.898409 7.614636 -0.561717 100
1.631753 7.545494 -0.610282 101
0.905290 7.661810 -0.446201 5
1.658385 7.662367 -0.257333 100
1.136783 7.543959 -0.809932 101
1.866756 7.466052 -0.861872 101
1.666249 7.692407 -0.137385 101
1.143346 7.578812 -0.694833 100
1.892143 7.562149 -0.510929 69
1.361636 7.411180 -1.106256 101
1.161919 7.693099 -0.345140 101
1.898017 7.580174 -0.391748 100
1.378871 7.497848 -0.824147 101
1.171648 7.748630 -0.227112 39
1.916561 7.634355 -0.273495 101
1.382714 7.492896 -0.705490 101
2.108967 7.399546 -0.876646 101
1.928395 7.675991 -0.153348 101
1.398102 7.569104 -0.593614 101
2.145323 7.522276 -0.527779 101
1.603371 7.356228 -1.225356 100
1.418860 7.674212 -0.241169 54
0.905832 7.560685 -0.793625 4
2.157337 7.559550 -0.409245 101
1.629532 7.470176 -0.841407 101
1.431582 7.735701 -0.122212 63
0.911779 7.599434 -0.679056 101
1.655212 7.581737 -0.493677 101
1.662182 7.607486 -0.375397 101
1.143000 7.485237 -1.017047 87
1.887376 7.485902 -0.744727 101
1.690178 7.729345 -0.016571 100
1.159731 7.586203 -0.577036 101
1.895120 7.511253 -0.627362 101
1.700747 7.771374 0.105529 32
1.172488 7.660969 -0.463160 100
2.124793 7.412222 -0.758764 101
1.413326 7.586811 -0.476068 79
2.142199 7.468172 -0.644217 34
1.425305 7.643929 -0.359891 101
1.646907 7.494983 -0.725387 101
1.456013 7.801290 -0.001385 101
0.929315 7.647095 -0.564347 100
1.658081 7.539752 -0.610282 101
0.937818 7.706172 -0.448973 100
1.685121 7.656532 -0.257333 101
1.160683 7.524220 -0.808243 101
1.894762 7.467196 -0.862763 101
1.695671 7.698261 -0.137595 101
1.170402 7.578711 -0.695194 100
1.919511 7.559366 -0.511191 58
1.384583 7.390823 -1.103932 101
1.191819 7.708742 -0.346026 101
1.927417 7.585119 -0.392349 100
1.403569 7.485171 -0.823288 101
1.195631 7.724736 -0.226533 101
1.942212 7.623744 -0.273356 101
1.411070 7.499767 -0.706596 101
2.132578 7.384503 -0.875740 101
1.957153 7.676963 -0.153503 100
1.421562 7.548501 -0.592384 101
2.166028 7.495572 -0.526433 101
1.629893 7.354441 -1.225998 100
1.447120 7.677071 -0.241416 57
0.933192 7.565374 -0.794454 101
2.184821 7.555811 -0.409452 100
1.655597 7.464442 -0.841407 101
1.457834 7.726726 -0.122150 59
0.938789 7.600159 -0.679410 101
1.683397 7.583707 -0.494185 101
1.688727 7.601638 -0.375397 101
1.167285 7.469450 -1.015450 101
1.912508 7.475411 -0.744343 101
1.719752 7.735112 -0.016596 98
1.184972 7.574226 -0.576436 101
1.922316 7.508454 -0.627685 101
1.199840 7.660775 -0.463399 100
2.150653 7.404760 -0.758764 101
1.440545 7.585753 -0.476314 79
2.172705 7.475960 -0.645539 33
1.451979 7.638906 -0.359891 101
1.678268 7.512508 -0.727645 101
1.477255 7.764723 -0.001380 100
0.955013 7.635888 -0.563763 100
1.686130 7.541701 -0.610913 101
0.963223 7.690965 -0.448280 100
1.712710 7.654505 -0.257464 100
1.187561 7.524052 -0.808665 101
1.917842 7.448988 -0.861427 101
1.724281 7.700100 -0.137734 100
1.198093 7.582449 -0.695916 100
1.945886 7.552620 -0.511191 67
1.410373 7.385945 -1.103932 101
1.217472 7.696640 -0.345671 101
1.953882 7.578344 -0.392349 100
1.430436 7.484132 -0.823718 101
1.221962 7.716567 -0.226417 101
1.968538 7.621118 -0.273495 101
1.433739 7.483300 -0.705490 101
2.157088 7.377381 -0.875740 101
1.447371 7.547655 -0.592692 101
2.196489 7.507495 -0.527779 101
1.656020 7.356696 -1.227284 100
1.474845 7.684007 -0.241787 59
0.960289 7.578024 -0.796113 101
2.212102 7.556194 -0.409868 49
1.681207 7.462791 -0.841845 101
1.481932 7.713995 -0.122026 66
0.963979 7.597005 -0.679410 101
1.711141 7.589772 -0.494947 101
1.714754 7.599905 -0.375589 101
1.188248 7.442058 -1.012255 101
1.936216 7.465192 -0.743959 101
1.744439 7.725481 -0.016588 100
1.210010 7.570267 -0.576436 101
1.946110 7.498203 -0.627362 101
1.225143 7.656769 -0.463399 100
2.179534 7.412910 -0.760331 101
1.467050 7.588805 -0.476807 83
2.197307 7.468766 -0.645539 34
1.476363 7.630161 -0.359706 101
1.703854 7.510829 -0.728022 101
1.503551 7.763749 -0.001380 100
0.981143 7.640618 -0.564347 100
1.709144 7.528341 -0.610282 101
0.985951 7.667954 -0.447125 96
1.742267 7.668331 -0.258120 101
1.212897 7.524038 -0.809087 101
1.942273 7.442655 -0.861427 101
1.747764 7.686602 -0.137595 100
1.222332 7.574544 -0.695555 101
1.971645 7.550062 -0.511452 56
1.435335 7.385166 -1.104513 101
1.243972 7.700498 -0.346026 101
1.979705 7.575769 -0.392549 100
1.454943 7.479407 -0.823718 101
1.246594 7.708576 -0.226301 96
1.993103 7.606466 -0.273217 101
1.462142 7.489977 -0.706596 101
1.475238 7.550385 -0.593307 101
2.222682 7.499783 -0.527779 101
1.682570 7.354719 -1.227926 100
1.501658 7.678812 -0.241787 57
0.986221 7.570681 -0.795698 101
1.705472 7.449126 -0.840970 101
1.511154 7.720551 -0.122212 63
0.989461 7.585692 -0.678703 101
1.734057 7.568189 -0.493931 101
1.743951 7.605556 -0.376167 101
1.211663 7.422215 -1.010125 101
1.963276 7.462239 -0.744343 101
1.771395 7.719345 -0.016588 101
1.237715 7.573870 -0.577036 101
1.972272 7.491364 -0.627362 101
1.251218 7.648505 -0.463160 100
2.204260 7.401441 -0.759939 101
1.494303 7.587554 -0.477053 85
2.222226 7.457230 -0.645208 32
1.505306 7.636723 -0.360261 101
1.728272 7.497076 -0.727269 101
1.535288 7.781999 -0.001384 100
1.007286 7.633192 -0.564055 100
1.738101 7.533986 -0.611228 101
1.009049 7.636753 -0.445508 90
1.767226 7.654412 -0.257858 100
1.238506 7.515834 -0.808665 101
1.969258 7.439673 -0.861872 101
1.773684 7.676557 -0.137525 100
1.250710 7.582023 -0.696639 100
1.997988 7.543133 -0.511452 61
1.460337 7.376229 -1.103932 101
1.270844 7.696108 -0.346026 101
2.007161 7.572674 -0.392749 100
1.480269 7.470382 -0.823288 101
1.276102 7.719956 -0.226765 93
2.023749 7.614916 -0.273772 101
1.489054 7.488734 -0.706965 101
1.280973 7.717690 -0.106509 5
1.501585 7.545189 -0.593307 101
2.248847 7.491978 -0.527779 101
1.705551 7.337265 -1.225998 100
1.526891 7.665681 -0.241540 61
1.009476 7.543532 -0.793210 101
1.735968 7.462491 -0.843158 101
1.538877 7.719151 -0.122274 62
1.019638 7.609836 -0.681177 101
1.762275 7.569865 -0.494439 101
1.768676 7.591640 -0.375782 101
1.239521 7.429671 -1.011722 100
1.992392 7.466881 -0.745495 101
1.799238 7.717010 -0.016596 100
1.261517 7.553766 -0.575837 101
2.003552 7.503695 -0.628977 101
1.279884 7.655906 -0.463876 95
2.233531 7.405135 -0.761114 101
1.521564 7.586206 -0.477300 81
2.252851 7.464693 -0.646531 32
1.530381 7.623586 -0.359891 101
1.752615 7.483242 -0.726516 101
1.563231 7.780514 -0.001385 87
1.033925 7.629629 -0.564055 100
1.767119 7.539520 -0.612173 101
1.576172 7.838173 0.121410 78
1.040533 7.668798 -0.447587 100
1.796673 7.659873 -0.258251 100
1.267376 7.527155 -0.810354 101
1.994185 7.428915 -0.861427 101
1.804125 7.685894 -0.137804 100
1.279154 7.589396 -0.697722 100
2.025341 7.539968 -0.511714 64
1.489986 7.390484 -1.106837 101
1.298366 7.695566 -0.346203 101
2.033582 7.565621 -0.392749 100
1.508696 7.476864 -0.824577 101
1.305040 7.727282 -0.227112 100
0.793834 7.617961 -0.664706 39
2.048990 7.608163 -0.273772 100
1.513880 7.483755 -0.706965 101
1.313238 7.752834 -0.107054 101
0.802252 7.662542 -0.549557 41
1.530555 7.559713 -0.594845 101
2.274839 7.488298 -0.528048 101
1.732592 7.343096 -1.227926 100
1.553097 7.664494 -0.241663 57
1.035567 7.548027 -0.794040 101
1.758878 7.448954 -0.842283 101
1.563671 7.710086 -0.122212 63
1.042698 7.590623 -0.679763 101
1.790122 7.575634 -0.495201 101
1.060188 7.708431 -0.330202 77
1.794760 7.589621 -0.375974 101
1.266813 7.441152 -1.013852 101
2.016103 7.456389 -0.745111 101
1.826661 7.718786 -0.016613 65
1.291250 7.577066 -0.577936 101
2.029466 7.500858 -0.629300 101
1.304594 7.647683 -0.463637 100
2.261562 7.409110 -0.762289 101
1.545117 7.573296 -0.476807 81
2.278756 7.460993 -0.646861 30
1.554055 7.610640 -0.359521 101
1.781104 7.492887 -0.728022 101
1.592227 7.790964 -0.001388 85
1.058671 7.622207 -0.563763 101
1.795803 7.549136 -0.613434 101
1.605362 7.848577 0.121652 100
1.067608 7.677171 -0.448280 96
1.822990 7.657763 -0.258382 101
1.293003 7.526831 -0.810777 101
2.021939 7.433768 -0.862763 101
1.828676 7.675978 -0.137734 100
1.299589 7.557630 -0.695194 100
2.050333 7.533210 -0.511714 59
1.512896 7.377748 -1.105675 101
1.324556 7.695156 -0.346380 101
2.058659 7.558836 -0.392749 100
1.535081 7.479611 -0.825437 101
1.327941 7.707151 -0.226649 100
0.818666 7.611325 -0.664361 100
2.073429 7.593252 -0.273495 58
1.539994 7.478425 -0.706965 101
1.336884 7.728498 -0.106782 95
0.829853 7.667629 -0.550126 100
1.555324 7.546512 -0.594229 101
2.304484 7.491755 -0.528856 101
1.760054 7.344682 -1.229211 100
1.579034 7.655110 -0.241540 55
1.060799 7.536486 -0.793210 101
1.786723 7.450501 -0.843158 101
1.593001 7.716331 -0.122399 59
1.069188 7.586937 -0.679763 101
1.812828 7.553813 -0.494185 101
1.087648 7.708641 -0.330371 101
1.823108 7.591079 -0.376360 101
1.292780 7.436685 -1.013852 101
2.046329 7.464665 -0.746647 101
1.318374 7.576442 -0.578236 101
2.052472 7.482193 -0.628331 101
1.330596 7.639149 -0.463399 100
2.282709 7.385957 -0.760723 79
1.573978 7.579583 -0.477546 74
2.303608 7.449185 -0.646531 29
1.580611 7.605168 -0.359521 101
1.067275 7.501073 -0.950433 31
1.809118 7.494366 -0.728775 101
1.616969 7.773610 -0.001386 86
1.085834 7.622415 -0.564055 101
1.820270 7.535069 -0.612804 101
1.636009 7.858588 0.121895 96
1.094399 7.673398 -0.448280 86
1.845951 7.635808 -0.257858 100
1.317207 7.510518 -0.809510 101
2.051046 7.438161 -0.864098 101
1.859221 7.685097 -0.138014 100
1.326651 7.556972 -0.695555 100
2.077678 7.529855 -0.511976 56
1.539448 7.376297 -1.106256 101
1.349334 7.678679 -0.345849 100
2.087159 7.559306 -0.393150 100
1.561180 7.474207 -0.825437 101
1.353451 7.694593 -0.226417 100
0.845229 7.608421 -0.664361 96
1.566089 7.473004 -0.706965 101
1.366635 7.739539 -0.106999 87
0.854397 7.644859 -0.548703 99
1.583294 7.548843 -0.594845 101
1.791282 7.361510 -1.233067 25
1.609852 7.669116 -0.242157 52
1.089373 7.548488 -0.794869 101
1.817423 7.463534 -0.845345 101
1.623215 7.726380 -0.122647 71
1.097374 7.594989 -0.680824 101
1.842965 7.562953 -0.495201 101
1.112833 7.692932 -0.329863 101
1.849595 7.584669 -0.376360 101
1.317346 7.424320 -1.012787 101
2.073439 7.461313 -0.747032 101
1.342721 7.560012 -0.577336 101
2.083918 7.494189 -0.629945 101
1.359350 7.646252 -0.464115 96
1.602077 7.581855 -0.478038 83
2.335552 7.460120 -0.648183 29
1.609629 7.611332 -0.360076 101
1.092306 7.489447 -0.949437 85
1.835267 7.488005 -0.728775 101
1.644922 7.771832 -0.001386 92
1.113011 7.622526 -0.564347 101
1.847511 7.532542 -0.613119 101
1.660116 7.837178 0.121652 96
1.118867 7.653725 -0.447356 80
1.877359 7.648732 -0.258514 100
1.344818 7.513705 -0.810354 101
2.073787 7.419471 -0.862763 101
1.883173 7.666908 -0.137804 100
1.355129 7.564058 -0.696639 100
2.100725 7.511025 -0.511191 60
1.565187 7.370878 -1.106256 101
1.376835 7.677855 -0.346026 100
2.110303 7.540433 -0.392549 100
1.586434 7.464822 -0.825007 101
1.381008 7.693757 -0.226533 100
0.872236 7.609383 -0.664706 82
1.592130 7.467499 -0.706965 101
1.395025 7.742600 -0.107108 88
0.882412 7.653725 -0.549557 100
1.607948 7.535475 -0.594229 101
1.636604 7.663451 -0.242157 60
1.116289 7.548576 -0.795284 101
1.841561 7.449424 -0.844470 101
1.646837 7.705021 -0.122399 71
1.122717 7.583229 -0.680117 101
1.872249 7.568094 -0.495962 101
1.142042 7.704810 -0.330541 101
1.878012 7.585916 -0.376745 101
1.343285 7.419671 -1.012787 101
2.099516 7.454018 -0.747032 101
1.371281 7.567045 -0.578236 101
2.109042 7.483015 -0.629622 101
1.386805 7.645378 -0.464353 100
1.628633 7.576195 -0.478038 83
2.362895 7.455687 -0.648514 30
1.639664 7.621268 -0.360816 101
1.116209 7.469871 -0.947446 87
1.864405 7.493115 -0.729904 101
1.675540 7.781656 -0.001389 88
1.143282 7.642247 -0.566101 101
1.871044 7.514404 -0.612173 101
1.681711 7.803936 0.121227 77
1.148677 7.669498 -0.448511 93
1.906136 7.649851 -0.258776 100
1.372620 7.516763 -0.811199 101
2.103089 7.423614 -0.864098 101
1.912998 7.671887 -0.138014 99
1.382409 7.563170 -0.697000 100
2.141263 7.553516 -0.514592 56
1.593591 7.376936 -1.107999 101
1.405970 7.684761 -0.346558 101
0.895009 7.583529 -0.781039 4
2.142257 7.552182 -0.393550 100
1.618557 7.486406 -0.828017 101
1.410216 7.700652 -0.226881 100
0.899925 7.614184 -0.665398 88
1.618186 7.461896 -0.706965 101
1.419874 7.725882 -0.106945 84
0.908182 7.642674 -0.548988 97
1.636779 7.541508 -0.595152 101
1.432882 7.789291 0.013823 11
1.662496 7.653785 -0.242034 54
1.142036 7.540700 -0.794869 101
1.867553 7.442951 -0.844470 101
1.676271 7.710950 -0.122585 67
1.150375 7.587142 -0.680824 101
1.896710 7.553769 -0.495455 101
1.167131 7.688923 -0.330032 101
1.905454 7.583189 -0.376937 101
1.368457 7.411038 -1.012255 101
1.187671 7.815379 -0.213906 18
2.127708 7.454300 -0.747800 101
1.399862 7.573979 -0.579136 101
2.138435 7.487109 -0.630591 101
1.412758 7.636564 -0.464115 100
1.655922 7.574364 -0.478285 81
2.387688 7.443597 -0.648183 24
1.664549 7.607692 -0.360446 101
1.140477 7.454159 -0.945952 92
1.891524 7.490422 -0.730281 101
1.700982 7.767945 -0.001388 100
1.169951 7.638210 -0.566101 101
1.901171 7.523291 -0.613434 101
1.709798 7.801924 0.121288 18
1.174837 7.661495 -0.448280 93
1.933808 7.647027 -0.258907 100
1.398122 7.508016 -0.810777 101
2.131183 7.423870 -0.864989 100
1.939766 7.665163 -0.138014 68
1.405881 7.542633 -0.695555 100
2.158800 7.515306 -0.512499 61
1.618482 7.367463 -1.107418 101
1.432053 7.675878 -0.346380 100
0.920514 7.572458 -0.780225 101
2.166399 7.536979 -0.393150 90
1.642118 7.469059 -0.826727 101
1.433418 7.676031 -0.226301 100
0.925535 7.603085 -0.664706 95
1.644636 7.464269 -0.707703 101
1.446958 7.728994 -0.107054 96
0.934488 7.647542 -0.549557 100
1.660920 7.532145 -0.594845 101
1.463862 7.812018 0.013872 58
0.943481 7.710359 -0.434291 85
1.689591 7.656038 -0.242281 57
1.167036 7.536872 -0.794869 101
1.897127 7.455983 -0.846658 101
1.700107 7.697538 -0.122461 65
1.178581 7.602973 -0.682591 101
1.923719 7.555175 -0.495962 101
1.191396 7.677113 -0.329693 101
1.932563 7.584571 -0.377323 101
1.394491 7.414251 -1.013320 101
1.198235 7.712619 -0.211201 63
2.149100 7.435729 -0.746647 101
1.422019 7.553616 -0.577936 101
2.159929 7.468486 -0.629622 101
1.437334 7.627913 -0.463876 100
1.682762 7.576626 -0.478777 74
2.408669 7.424263 -0.647192 11
1.689768 7.602130 -0.360446 101
1.168255 7.469942 -0.948442 97
1.917341 7.487967 -0.730657 101
1.729337 7.773975 -0.001390 88
1.193423 7.622464 -0.565224 101
1.928088 7.524671 -0.614065 101
1.201473 7.665447 -0.448742 97
1.963128 7.656062 -0.259432 100
1.424494 7.511154 -0.811621 101
2.155790 7.416761 -0.864989 100
1.430886 7.537930 -0.695555 100
2.188169 7.523436 -0.513545 54
1.642905 7.362056 -1.107418 101
1.458991 7.678938 -0.346735 101
0.944634 7.561467 -0.779411 101
2.195846 7.545097 -0.393951 21
1.666877 7.463572 -0.826727 101
1.461106 7.683019 -0.226649 100
0.950743 7.599974 -0.664706 94
1.669846 7.454588 -0.707334 101
1.474715 7.727818 -0.107108 82
0.959223 7.628394 -0.548419 100
1.688097 7.530188 -0.595152 101
1.487392 7.787211 0.013837 57
0.966420 7.675316 -0.432505 87
1.718064 7.657894 -0.242528 49
1.193346 7.532751 -0.794869 101
1.921149 7.441617 -0.845783 101
1.727837 7.695460 -0.122523 67
1.200739 7.571267 -0.680117 101
1.948064 7.540689 -0.495455 101
1.218794 7.676857 -0.329863 101
1.957994 7.573920 -0.377130 101
1.420331 7.409345 -1.013320 101
1.224489 7.704446 -0.211093 69
2.178353 7.439658 -0.747800 101
1.450586 7.560367 -0.578836 101
2.188168 7.468571 -0.630268 101
1.466151 7.634625 -0.464592 96
1.709977 7.574623 -0.479024 80
1.718821 7.607903 -0.361001 101
1.194838 7.469756 -0.948940 100
1.942339 7.477407 -0.730281 101
1.758978 7.779625 -0.001392 83
1.217371 7.602516 -0.564055 101
1.955205 7.521790 -0.614380 101
1.229344 7.669115 -0.449204 97
1.984651 7.629858 -0.258776 100
1.449041 7.498354 -0.810777 101
2.183746 7.416866 -0.865879 50
1.460047 7.548566 -0.697000 101
2.214236 7.515806 -0.513545 63
1.668416 7.356316 -1.107418 101
1.482564 7.658142 -0.346026 101
0.970840 7.558147 -0.779411 101
1.691846 7.453874 -0.826297 101
1.487717 7.677910 -0.226649 100
0.976052 7.588729 -0.664015 87
1.700278 7.468132 -0.709178 101
1.501681 7.722623 -0.107108 100
0.988914 7.648741 -0.550126 89
1.715257 7.528138 -0.595460 101
1.513037 7.774119 0.013823 56
0.989617 7.644171 -0.430942 79
1.743896 7.647952 -0.242404 54
1.217724 7.516757 -0.793625 101
1.947113 7.434865 -0.845783 101
1.755579 7.693282 -0.122585 60
1.225885 7.559164 -0.679410 101
1.976398 7.541566 -0.495962 101
1.246225 7.676500 -0.330032 101
1.986447 7.574768 -0.377515 101
1.446186 7.404342 -1.013320 101
1.253941 7.715911 -0.211526 64
2.209970 7.451095 -0.749720 101
1.475437 7.547428 -0.578236 101
2.213091 7.457065 -0.629945 101
1.492025 7.625542 -0.464353 100
1.734622 7.560825 -0.478531 78
1.745367 7.601857 -0.361001 101
1.222186 7.473373 -0.949935 100
1.969443 7.474432 -0.730657 101
1.782541 7.757844 -0.001389 96
1.244546 7.602157 -0.564347 101
1.979416 7.507208 -0.613750 101
1.252878 7.645073 -0.448049 90
2.012292 7.626750 -0.258907 101
1.477511 7.504959 -0.812043 101
1.488698 7.555149 -0.698083 100
2.245023 7.523330 -0.514592 63
1.695862 7.358160 -1.108580 101
1.512380 7.668602 -0.346735 101
0.995134 7.538932 -0.777783 100
1.719643 7.455673 -0.827157 101
1.516057 7.680516 -0.226881 100
1.001492 7.577374 -0.663323 100
1.723643 7.450510 -0.708071 101
1.527075 7.709487 -0.106999 100
1.013506 7.629422 -0.548988 100
1.743324 7.529875 -0.596075 101
1.540943 7.772714 0.013830 53
1.016821 7.644629 -0.431165 81
1.773289 7.653503 -0.242775 53
1.245904 7.524236 -0.794869 101
1.975095 7.435709 -0.846658 101
1.783326 7.691003 -0.122647 61
1.254218 7.566630 -0.680470 101
2.004762 7.542337 -0.496470 101
1.273013 7.672103 -0.330032 101
2.012876 7.567788 -0.377515 101
1.474344 7.410913 -1.014917 101
1.281522 7.715432 -0.211634 54
0.776096 7.629070 -0.650677 31
2.233675 7.435709 -0.748952 101
1.502552 7.546144 -0.578536 101
2.243698 7.464567 -0.631237 101
1.518634 7.620287 -0.464353 99
1.761910 7.558612 -0.478777 76
1.558627 7.800647 0.136075 4
1.771892 7.595718 -0.361001 101
1.247611 7.465147 -0.949437 100
1.996550 7.471359 -0.731033 101
1.811428 7.759365 -0.001391 71
1.275683 7.625309 -0.566393 101
2.008699 7.511809 -0.614695 101
1.281536 7.652469 -0.448742 86
2.039936 7.623541 -0.259039 101
1.503699 7.499756 -0.812043 101
0.791324 7.664725 -0.534765 1
1.511927 7.534284 -0.696639 100
2.268962 7.507806 -0.514069 58
1.720634 7.348343 -1.107999 101
1.536778 7.651523 -0.346203 100
1.021444 7.535412 -0.777783 100
1.749287 7.465113 -0.828877 101
1.542070 7.671257 -0.226765 101
1.029543 7.585679 -0.664361 100
1.756003 7.471592 -0.710653 101
1.553960 7.704113 -0.106999 100
1.040655 7.629793 -0.549272 101
1.773240 7.539275 -0.597305 101
1.568847 7.771211 0.013837 52
1.048353 7.676647 -0.433175 85
1.800906 7.651159 -0.242899 55
1.274148 7.531610 -0.796113 101
2.005177 7.444125 -0.848408 101
1.811081 7.688623 -0.122709 61
1.280625 7.562206 -0.680470 101
2.030047 7.531436 -0.496216 101
1.299794 7.667612 -0.330032 101
2.044496 7.579999 -0.378478 101
1.499430 7.401833 -1.014385 101
1.307122 7.703025 -0.211417 56
0.803570 7.634241 -0.651353 101
2.261954 7.435479 -0.749720 101
1.528112 7.536940 -0.578236 101
2.268605 7.452868 -0.630914 101
1.544457 7.611022 -0.464115 96
1.032831 7.506803 -0.910272 35
1.793847 7.575716 -0.480255 84
1.582703 7.779473 0.135801 97
1.064517 7.708460 -0.315263 100
1.799367 7.593363 -0.361186 101
1.273043 7.456826 -0.948940 100
2.024756 7.472016 -0.731786 101
1.301677 7.616868 -0.566101 101
2.037057 7.512432 -0.615326 101
1.308303 7.647938 -0.448742 92
2.067650 7.620214 -0.259170 33
1.528346 7.486653 -0.811199 101
1.329232 7.762476 -0.092098 100
0.816872 7.650005 -0.533934 48
1.541481 7.544557 -0.698083 100
2.294066 7.495999 -0.513807 34
1.750015 7.357674 -1.110323 101
1.569163 7.673501 -0.347444 100
1.051111 7.555438 -0.780225 100
1.777261 7.466678 -0.829736 101
1.573736 7.689312 -0.227460 101
1.057752 7.593867 -0.665398 100
1.780223 7.457669 -0.709915 101
1.584061 7.714314 -0.107217 100
1.066175 7.618211 -0.548703 100
1.799547 7.533040 -0.597305 101
1.594353 7.757851 0.013823 58
1.074589 7.668986 -0.432952 82
1.825743 7.637049 -0.242652 53
1.299754 7.523196 -0.795698 101
2.031150 7.437081 -0.848408 101
1.838839 7.686144 -0.122771 66
1.310409 7.577320 -0.682238 101
2.059481 7.535857 -0.496978 101
1.328596 7.674841 -0.330541 101
2.071997 7.576670 -0.378671 101
1.529262 7.415967 -1.017047 101
1.336734 7.714174 -0.211850 59
0.831507 7.643276 -0.652368 101
2.291411 7.438953 -0.750872 101
1.558442 7.551092 -0.579736 101
2.300479 7.463953 -0.632528 101
1.571823 7.609494 -0.464353 99
1.062359 7.526747 -0.913135 100
1.815613 7.549999 -0.479024 80
1.620392 7.824814 0.136690 81
1.089176 7.688869 -0.314615 101
1.827732 7.594806 -0.361556 101
1.301791 7.467977 -0.950931 100
2.048716 7.457223 -0.731033 101
1.326885 7.604418 -0.565516 101
2.066438 7.516810 -0.616271 101
1.337052 7.655126 -0.449435 94
1.554470 7.481272 -0.811199 101
1.355632 7.753849 -0.092051 101
0.841383 7.627275 -0.532549 100
1.567807 7.539130 -0.698083 100
1.776617 7.355367 -1.110904 101
1.593496 7.656240 -0.346912 100
1.076916 7.547783 -0.779818 100
1.801445 7.452698 -0.828877 101
1.598121 7.672029 -0.227112 100
1.082562 7.578294 -0.664361 100
1.805306 7.447538 -0.709547 101
1.610162 7.704822 -0.107163 100
1.095029 7.630240 -0.549842 101
1.823010 7.515085 -0.596382 101
1.621424 7.752238 0.013823 54
1.101352 7.665188 -0.432952 90
1.848618 7.615088 -0.242157 51
1.323934 7.506859 -0.794454 101
2.058159 7.433777 -0.848846 101
1.866601 7.683565 -0.122833 61
1.334773 7.560929 -0.681177 101
2.082576 7.517081 -0.496216 101
1.353292 7.658350 -0.330032 101
2.095230 7.557841 -0.378093 101
1.551882 7.395065 -1.014917 101
1.363653 7.709461 -0.211850 60
0.854178 7.604680 -0.649324 101
2.318549 7.434711 -0.751256 94
1.584791 7.545606 -0.579736 101
2.327706 7.459684 -0.632851 101
1.601661 7.619591 -0.465308 91
1.085782 7.503340 -0.910749 100
1.844798 7.555251 -0.479762 80
1.647696 7.819110 0.136690 100
1.114285 7.673154 -0.314129 100
1.854231 7.588379 -0.361556 101
1.327156 7.459479 -0.950433 100
2.081144 7.473044 -0.733292 101
1.355520 7.611522 -0.566393 101
2.089453 7.498028 -0.615326 101
1.363065 7.646481 -0.449204 99
1.583866 7.491367 -0.812888 101
1.383392 7.753007 -0.092098 101
0.870259 7.644116 -0.533934 100
1.594114 7.533612 -0.698083 101
1.804166 7.356808 -1.112066 101
1.621040 7.654540 -0.347090 101
1.103256 7.543978 -0.779818 100
1.830292 7.457951 -0.830166 101
1.624891 7.666404 -0.227112 100
1.107277 7.562640 -0.663323 100
1.833176 7.448931 -0.710284 101
1.640353 7.714808 -0.107381 100
1.121056 7.622427 -0.549557 100
1.851127 7.516423 -0.596998 101
1.646796 7.738709 0.013809 57
1.129835 7.673152 -0.433621 88
1.887621 7.659056 -0.243763 49
1.355057 7.529602 -0.797357 101
2.083024 7.422719 -0.848408 101
1.896287 7.688652 -0.123020 60
1.361160 7.556223 -0.681177 101
2.110972 7.517449 -0.496724 101
1.382155 7.665377 -0.330541 101
2.128102 7.573555 -0.379249 101
1.581015 7.405107 -1.017047 101
1.391285 7.708586 -0.211958 52
0.880736 7.601650 -0.649324 101
1.613647 7.551724 -0.580635 101
2.354965 7.455305 -0.633174 101
1.626612 7.606138 -0.464830 100
1.112000 7.499499 -0.910749 100
1.876018 7.568127 -0.480994 75
1.673361 7.805477 0.136553 80
1.145826 7.700835 -0.315425 101
1.881734 7.585723 -0.361741 101
1.354667 7.462600 -0.951429 100
2.106206 7.461882 -0.732916 101
1.382153 7.606731 -0.566393 101
2.120027 7.506016 -0.616587 101
1.387684 7.629875 -0.448511 90
1.610928 7.489663 -0.813310 101
1.411252 7.752050 -0.092144 101
0.898885 7.656874 -0.535041 101
1.618818 7.520192 -0.697361 100
1.832802 7.361962 -1.113809 101
1.647010 7.644907 -0.346912 101
1.130864 7.547936 -0.780632 100
1.860268 7.466925 -0.831886 101
1.655124 7.676295 -0.227576 101
1.134961 7.566594 -0.664015 100
1.861097 7.450215 -0.711022 101
1.667273 7.709034 -0.107381 100
1.148845 7.626359 -0.550126 100
1.877353 7.509916 -0.596998 101
1.673799 7.732913 0.013809 51
1.156017 7.665213 -0.433398 83
1.908523 7.629148 -0.243022 51
1.378459 7.509174 -0.795698 101
2.110009 7.419227 -0.848846 101
1.918257 7.662587 -0.122709 43
1.390409 7.567101 -0.682591 101
2.140478 7.521553 -0.497486 101
1.408180 7.656575 -0.330371 101
0.903758 7.579979 -0.765978 72
2.153431 7.562237 -0.379056 101
1.606013 7.395669 -1.016515 101
1.417460 7.699750 -0.211850 60
0.909156 7.614359 -0.650677 101
1.641692 7.553841 -0.581235 101
2.380975 7.447039 -0.633174 101
1.654001 7.604315 -0.465069 99
1.137575 7.491645 -0.910272 100
1.900476 7.553789 -0.480501 82
1.169087 7.673081 -0.314453 101
1.907227 7.575233 -0.361556 101
1.377818 7.442215 -0.949437 100
2.134430 7.462142 -0.733668 101
1.407243 7.594015 -0.565809 101
2.149507 7.510071 -0.617532 101
1.419407 7.652469 -0.450128 81
1.637062 7.483994 -0.813310 101
1.439763 7.754941 -0.092238 101
0.925607 7.653690 -0.535041 101
1.646763 7.522279 -0.698083 101
1.452849 7.818099 0.029146 21
1.854611 7.340172 -1.111485 101
1.675397 7.646917 -0.347267 100
1.157204 7.543943 -0.780632 100
1.888270 7.468097 -0.832746 101
1.679340 7.658754 -0.227228 100
1.163785 7.578342 -0.665398 100
1.886113 7.439813 -0.710653 101
1.692454 7.695355 -0.107272 100
1.174242 7.614415 -0.549557 100
1.901594 7.495585 -0.596382 101
1.704221 7.742650 0.013837 51
1.183375 7.665078 -0.433621 79
1.934158 7.618565 -0.242899 55
1.406858 7.516048 -0.796942 101
2.138096 7.419457 -0.849721 101
1.416080 7.558285 -0.682238 101
2.166720 7.514035 -0.497486 101
1.434162 7.647686 -0.330202 101
0.929726 7.572828 -0.765579 84
2.179815 7.554675 -0.379056 87
1.631819 7.390018 -1.016515 101
1.444329 7.694755 -0.211850 49
0.934270 7.599272 -0.649662 101
1.663746 7.528591 -0.579736 101
2.405728 7.434889 -0.632851 101
1.682259 7.606293 -0.465546 100
1.166159 7.503326 -0.912180 101
1.929795 7.558714 -0.481240 79
1.198327 7.684750 -0.315101 101
1.934646 7.572402 -0.361741 101
1.404524 7.441261 -0.949935 100
1.211944 7.763490 -0.197523 55
2.157140 7.443171 -0.732539 101
1.434483 7.592977 -0.566101 101
2.172377 7.491033 -0.616587 101
1.444626 7.639620 -0.449666 94
1.664903 7.486000 -0.814155 101
1.470543 7.769518 -0.092472 101
0.952811 7.654372 -0.535318 101
1.674741 7.524261 -0.698805 100
1.479386 7.809051 0.029131 100
0.955003 7.661467 -0.416790 46
1.881205 7.337487 -1.112066 101
1.702948 7.644923 -0.347444 100
1.183530 7.539858 -0.780632 94
1.910374 7.446052 -0.831026 101
1.707804 7.660651 -0.227460 100
1.190232 7.574233 -0.665398 100
1.915068 7.444751 -0.711759 101
1.721944 7.701106 -0.107435 100
1.200213 7.606326 -0.549272 101
1.929748 7.496624 -0.596998 101
1.732124 7.740554 0.013844 58
1.207021 7.641174 -0.432505 97
1.968723 7.642739 -0.243887 53
1.436073 7.526722 -0.798601 101
2.162864 7.408133 -0.849283 101
1.439463 7.537642 -0.680824 101
2.195164 7.514093 -0.497994 101
1.462338 7.650486 -0.330541 101
0.956144 7.569538 -0.765579 86
1.659324 7.392017 -1.017580 101
1.474918 7.709307 -0.212391 53
0.963274 7.615737 -0.651353 101
1.689990 7.522743 -0.579736 101
1.707015 7.592590 -0.465069 81
1.189816 7.483526 -0.910272 101
1.948103 7.521027 -0.479270 78
1.221311 7.656848 -0.314129 101
1.964011 7.577222 -0.362295 101
1.430427 7.436325 -0.949935 100
1.234557 7.731582 -0.196819 66
2.184160 7.439437 -0.732916 101
1.458644 7.576185 -0.565224 101
2.202930 7.498731 -0.617848 101
1.470449 7.630625 -0.449435 90
1.690939 7.480162 -0.814155 101
1.492263 7.736864 -0.092144 101
0.976396 7.627262 -0.533657 101
1.703539 7.530047 -0.699889 100
1.508813 7.815640 0.029175 93
0.979614 7.642252 -0.415927 54
1.908700 7.338562 -1.113228 77
1.729520 7.638956 -0.347444 101
1.209741 7.535697 -0.780632 100
1.941255 7.458609 -0.833176 101
1.736191 7.662467 -0.227692 100
1.216554 7.570050 -0.665398 100
1.937735 7.430651 -0.711022 101
1.743930 7.679752 -0.107217 100
1.226065 7.606243 -0.549557 100
1.960639 7.513337 -0.598843 101
1.761329 7.750370 0.013872 53
1.234262 7.648958 -0.433175 85
1.996077 7.643906 -0.244134 57
1.458749 7.510202 -0.797357 101
2.190800 7.412359 -0.850596 101
1.466732 7.544560 -0.681884 101
2.221202 7.510600 -0.498248 101
1.486937 7.641671 -0.330371 101
0.980217 7.558432 -0.764780 84
1.683827 7.386474 -1.017580 101
1.495889 7.680825 -0.211742 59
0.985957 7.592739 -0.649662 101
1.717588 7.528764 -0.580635 101
1.732183 7.586888 -0.465069 96
1.215899 7.487380 -0.911226 101
1.980131 7.541556 -0.480994 75
1.249908 7.672480 -0.314939 101
1.987097 7.562939 -0.361926 101
1.458130 7.447120 -0.951927 100
1.260833 7.731392 -0.196919 56
2.209952 7.435971 -0.733292 101
1.487596 7.590880 -0.566685 101
2.226648 7.487562 -0.617532 101
1.497282 7.633544 -0.449897 90
1.715734 7.474514 -0.814155 101
1.520994 7.747572 -0.092331 101
1.003243 7.635851 -0.534488 101
1.729392 7.528239 -0.700250 100
1.537036 7.822369 0.029219 100
1.005993 7.646882 -0.416359 64
1.753947 7.629284 -0.347267 100
1.234079 7.527717 -0.780225 94
1.965978 7.452131 -0.833176 101
1.763384 7.664460 -0.227923 100
1.241005 7.562042 -0.665052 100
1.967735 7.439244 -0.712497 101
1.776123 7.697001 -0.107544 100
1.253257 7.605854 -0.549842 100
1.983792 7.494881 -0.597920 101
1.783872 7.724687 0.013837 45
1.262905 7.656425 -0.433845 79
2.014558 7.605973 -0.243146 42
1.487272 7.516773 -0.798601 101
2.213239 7.393239 -0.849283 20
1.492284 7.535486 -0.681531 101
2.247405 7.502801 -0.498248 100
1.515156 7.644274 -0.330711 101
1.008697 7.570745 -0.766378 76
1.710495 7.384413 -1.018112 101
1.525025 7.687323 -0.212067 52
1.015090 7.609004 -0.651353 101
1.744759 7.526608 -0.580935 101
1.762265 7.596354 -0.466023 85
1.243327 7.490926 -0.912180 101
2.006444 7.534598 -0.480994 77
1.275370 7.660185 -0.314615 101
2.015542 7.563678 -0.362295 101
1.483340 7.438093 -0.951429 100
1.285840 7.715111 -0.196618 58
2.238191 7.435838 -0.734045 101
1.512522 7.577817 -0.566101 101
2.256221 7.491199 -0.618478 101
1.524701 7.632187 -0.450128 98
1.017253 7.548172 -0.887985 101
1.742718 7.472353 -0.814577 101
1.545676 7.730449 -0.092191 101
1.030424 7.636258 -0.534765 101
1.758376 7.533795 -0.701333 100
1.559622 7.793422 0.029131 100
1.039097 7.690822 -0.418946 72
1.780568 7.623115 -0.347267 101
1.261663 7.531212 -0.781039 100
1.996090 7.460590 -0.834895 101
1.789217 7.654365 -0.227808 100
1.268053 7.561594 -0.665398 90
1.995770 7.440020 -0.713234 101
1.801170 7.682962 -0.107435 100
1.281801 7.613233 -0.550695 100
2.016155 7.511018 -0.599766 101
1.289633 7.651968 -0.433845 83
2.039025 7.591171 -0.242899 30
1.514291 7.515435 -0.799015 101
1.521727 7.545854 -0.682945 101
2.273573 7.494913 -0.498248 100
1.540241 7.631106 -0.330371 101
1.033491 7.555348 -0.765179 78
1.736247 7.378401 -1.018112 101
1.555002 7.697633 -0.212499 56
1.041089 7.601468 -0.651015 101
1.771001 7.520477 -0.580935 101
1.581932 7.824236 0.151879 12
1.063241 7.753614 -0.302019 5
1.787829 7.586276 -0.465785 100
1.269442 7.486545 -0.912180 101
2.038933 7.550687 -0.482472 90
1.304066 7.667514 -0.315101 101
2.041882 7.556610 -0.362295 101
1.508456 7.428990 -0.950931 100
1.314725 7.722410 -0.196919 62
2.269883 7.447042 -0.735927 101
1.543675 7.595959 -0.567854 101
2.283458 7.487110 -0.618793 101
1.548087 7.611179 -0.449204 99
1.040267 7.520970 -0.885206 101
1.769641 7.470110 -0.814999 101
1.572581 7.725021 -0.092191 101
1.057552 7.636576 -0.535041 101
1.781833 7.516000 -0.700250 100
1.587539 7.791866 0.029146 100
1.065312 7.683202 -0.418730 64
1.810775 7.632425 -0.347976 100
1.289207 7.534621 -0.781853 100
2.022035 7.453599 -0.834895 101
1.817685 7.655874 -0.228039 101
1.295699 7.564992 -0.666090 100
