# This PCD file was generated using the MATLAB® pcwrite function
# from Computer Vision Toolbox®.
# .PCD v.7 - Point Cloud Data file format
VERSION .7
FIELDS x y z intensity
SIZE 4 4 4 1
TYPE F F F U
COUNT 1 1 1 1
WIDTH 1473
HEIGHT 1
VIEWPOINT 0 0 0 1 0 0 0
POINTS 1473
DATA ascii
-3.301440 9.761456 -0.854438 37
-3.342196 9.887385 -0.382707 25
-3.359958 9.945386 -0.223560 16
-3.638877 9.761452 -0.682809 39
-3.632116 9.748271 -0.521529 53
-3.644750 9.801992 -0.363363 27
-3.380073 10.054425 -1.208557 11
-3.297212 9.813352 -0.698499 58
-3.310050 9.856994 -0.541292 51
-3.353557 9.992064 -0.062545 23
-3.245481 9.702152 -1.006723 41
-3.267345 9.772922 -0.854438 36
-3.305129 9.891409 -0.382414 29
-3.327755 9.964641 -0.223730 17
-3.599257 9.759115 -0.681762 40
-3.603593 9.775885 -0.522330 52
-3.613627 9.817769 -0.363502 24
-3.240142 9.745015 -1.170068 12
-3.264657 9.824230 -0.698499 54
-3.272305 9.852753 -0.540461 51
-3.314092 9.984152 -0.062427 24
-3.340042 10.067959 0.099977 6
-3.562343 9.713499 -0.837882 18
-3.215733 9.720439 -1.007507 39
-3.236106 9.787509 -0.854769 35
-3.272236 9.902339 -0.382414 27
-3.289594 9.960459 -0.223389 19
-3.557190 9.744789 -0.679931 39
-3.571043 9.787821 -0.522330 53
-3.569760 9.804029 -0.362530 25
-3.193699 9.718509 -1.165540 25
-3.592854 9.872589 -0.203560 11
-3.224117 9.816607 -0.697153 59
-3.240385 9.871706 -0.540877 46
-3.277974 9.991859 -0.062403 25
-3.298647 10.060553 0.099788 66
-3.874328 9.698661 -0.503482 3
-3.521617 9.707135 -0.836268 101
-3.185494 9.742956 -1.008682 41
-3.200683 9.794956 -0.854438 35
-3.241374 9.925100 -0.382853 24
-3.254806 9.971881 -0.223389 17
-3.524508 9.760900 -0.680193 43
-3.535500 9.796469 -0.522130 53
-3.539580 9.827713 -0.362946 24
-3.153617 9.710698 -1.163276 57
-3.566498 9.907648 -0.204025 23
-3.192295 9.835394 -0.697692 60
-3.204674 9.879157 -0.540669 50
-3.249244 10.022265 -0.062522 23
-3.264742 10.075810 0.099826 55
-3.837511 9.704695 -0.503097 62
-3.480978 9.700605 -0.834653 101
-3.150242 9.750228 -1.008290 43
-3.170147 9.817450 -0.855430 34
-3.201798 9.921139 -0.382267 29
-3.215067 9.967957 -0.223049 16
-3.489072 9.769385 -0.679931 40
-3.505311 9.820038 -0.522731 46
-3.511986 9.858829 -0.363641 24
-3.120932 9.725427 -1.163729 76
-3.527884 9.908729 -0.203793 26
-3.159169 9.850275 -0.697961 59
-3.170166 9.890285 -0.540669 56
-3.211786 10.025932 -0.062474 25
-3.223428 10.068107 0.099637 53
-3.797764 9.703158 -0.502326 54
-3.441719 9.697683 -0.833362 101
-3.120958 9.776357 -1.009857 39
-3.134564 9.824684 -0.855099 35
-3.167053 9.932284 -0.382267 27
-3.189863 10.009635 -0.223730 17
-3.452159 9.774024 -0.679408 43
-3.466880 9.820963 -0.522130 49
-3.470910 9.852176 -0.362946 27
-3.089367 9.743838 -1.164635 100
-3.491946 9.917211 -0.203715 29
-3.129588 9.876461 -0.699038 59
-3.134417 9.897482 -0.540461 57
-3.174355 10.029455 -0.062427 22
-3.184646 10.067856 0.099524 53
-3.765314 9.720081 -0.502519 51
-3.414448 9.728448 -0.834976 101
-3.086813 9.787191 -1.009857 43
-3.099052 9.831764 -0.854769 35
-3.134766 9.950904 -0.382560 28
-3.151300 10.009265 -0.223475 17
-3.418020 9.786015 -0.679408 36
-3.431260 9.829233 -0.521930 52
-3.440444 9.875556 -0.363363 23
-3.055336 9.754562 -1.164635 101
-3.459938 9.936893 -0.203870 23
-3.092709 9.879707 -0.698499 56
-3.104620 9.923613 -0.541292 51
-3.142907 10.051928 -0.062498 21
-3.729795 9.724184 -0.662553 77
-3.154255 10.094182 0.099675 54
-3.732792 9.736897 -0.502712 52
-3.380114 9.733997 -0.993994 75
-3.388312 9.762906 -0.836914 101
-3.052630 9.797907 -1.009857 35
-3.449437 9.955244 -0.042294 7
-3.064714 9.842522 -0.854769 34
-3.098824 9.957969 -0.382414 29
-3.113967 10.012567 -0.223304 19
-3.158321 10.161209 0.263770 32
-3.382537 9.794113 -0.679146 42
-3.399536 9.848703 -0.522330 50
-3.402045 9.876166 -0.362946 25
-3.023617 9.772761 -1.165540 101
-3.423928 9.945128 -0.203793 25
-3.058203 9.890443 -0.698499 58
-3.069961 9.934389 -0.541292 56
-3.108981 10.066659 -0.062522 21
-3.680246 9.696091 -0.659760 77
-3.123719 10.120419 0.099826 61
-3.694529 9.738660 -0.502134 49
-3.340944 9.730674 -0.992457 100
-3.351624 9.767132 -0.836268 101
-3.016069 9.800894 -1.009074 40
-3.423740 9.993713 -0.042406 100
-3.030339 9.853160 -0.854769 36
-3.066394 9.976367 -0.382707 30
-3.084869 10.042489 -0.223730 17
-3.113444 10.141590 0.262977 24
-3.700432 9.798928 -0.343810 30
-3.349618 9.809638 -0.679408 43
-3.362556 9.852948 -0.521930 48
-3.363683 9.876629 -0.362530 22
-2.988324 9.779456 -1.165087 101
-3.386616 9.949448 -0.203638 28
-3.024827 9.904875 -0.698769 56
-3.035265 9.945045 -0.541292 54
-3.069155 10.062146 -0.062427 23
-3.635149 9.678982 -0.657728 72
-3.083708 10.115957 0.099675 51
-3.660513 9.751497 -0.502134 55
-3.294159 9.704575 -0.988617 96
-3.317510 9.778772 -0.836268 101
-2.981839 9.811362 -1.009074 41
-3.384985 9.994238 -0.042358 98
-2.995926 9.863677 -0.854769 35
-3.030391 9.983185 -0.382560 29
-3.045152 10.037889 -0.223389 20
-3.657809 9.789316 -0.343023 44
-3.402693 10.074400 -1.190862 7
-3.316633 9.825053 -0.679669 46
-3.328143 9.864625 -0.521930 50
-3.335565 9.907253 -0.363224 26
-2.954169 9.789827 -1.165087 101
-3.350589 9.957418 -0.203560 28
-2.993690 9.926836 -0.699577 55
-2.999379 9.951755 -0.541085 57
-3.037473 10.084289 -0.062498 24
-3.606903 9.706579 -0.658744 66
-3.049531 10.130489 0.099713 48
-3.626451 9.764215 -0.502134 56
-3.264064 9.727339 -0.989769 100
-3.279553 9.778953 -0.835299 101
-2.948717 9.825523 -1.009465 39
-3.350078 10.005993 -0.042358 100
-2.963768 9.881712 -0.855430 36
-2.995524 9.993702 -0.382560 29
-3.012389 10.056119 -0.223560 17
-3.623616 9.802024 -0.343023 51
-3.269313 9.792113 -1.156137 6
-3.281053 9.832784 -0.679408 48
-3.291161 9.868603 -0.521529 58
-3.297201 9.907449 -0.362808 23
-2.918859 9.796267 -1.164635 101
-3.314565 9.965253 -0.203483 28
-2.954472 9.921924 -0.698499 56
-2.963480 9.958336 -0.540877 49
-3.002240 10.094834 -0.062498 22
-3.575740 9.726609 -0.659252 82
-3.014126 10.141080 0.099713 51
-3.590944 9.773073 -0.501941 60
-3.232562 9.746242 -0.990537 101
-3.247863 9.797924 -0.835945 101
-2.913197 9.831962 -1.009074 39
-3.317568 10.025246 -0.042390 100
-2.929172 9.892022 -0.855430 34
-2.961660 10.007959 -0.382707 26
-2.979431 10.074274 -0.223730 20
-3.561132 9.732622 -0.819278 61
-3.589264 9.814655 -0.343023 59
-3.210075 9.728008 -1.147234 17
-3.613702 9.886666 -0.183739 1
-3.242826 9.832850 -0.678623 48
-3.257798 9.883873 -0.521729 48
-3.262598 9.918898 -0.362808 25
-2.889132 9.821646 -1.166446 101
-3.282258 9.984361 -0.203638 25
-2.919820 9.932177 -0.698499 56
-2.928700 9.968620 -0.540877 56
-2.965857 10.101415 -0.062474 21
-3.545859 9.750286 -0.660014 83
-2.977582 10.147701 0.099675 52
-3.556808 9.785548 -0.501941 63
-3.201002 9.765034 -0.991305 100
-3.213642 9.809201 -0.835945 101
-2.878859 9.842071 -1.009074 42
-3.275093 10.013954 -0.042294 100
-2.895743 9.906013 -0.855761 34
-3.289369 10.063368 0.120114 12
-2.925587 10.014400 -0.382560 29
-2.937522 10.061580 -0.223219 18
-3.527137 9.744994 -0.819278 76
-3.561783 9.845922 -0.343679 73
-3.172401 9.727816 -1.145898 46
-3.569650 9.872893 -0.183250 21
-3.210957 9.851699 -0.679146 47
-3.223278 9.895185 -0.521729 52
-3.230426 9.937829 -0.363085 25
-2.853723 9.827855 -1.165993 101
-3.253564 10.014775 -0.204025 24
-2.884020 9.938476 -0.698230 62
-2.894998 9.982618 -0.541085 56
-2.930579 10.111706 -0.062474 24
-3.514505 9.770117 -0.660521 85
-2.943255 10.161876 0.099713 45
-3.519925 9.790384 -0.501556 62
-3.170578 9.787511 -0.992457 101
-3.183066 9.831738 -0.836914 101
-2.843382 9.848235 -1.008682 38
-3.236428 10.013906 -0.042246 101
-2.858936 9.908401 -0.855099 36
-3.259139 10.090013 0.120296 22
-3.824179 9.689499 -0.482136 8
-2.891720 10.028391 -0.382707 30
-2.904597 10.079458 -0.223389 19
-3.487723 9.742229 -0.818017 74
-3.524699 9.850766 -0.343416 77
-3.135987 9.731263 -1.145008 48
-3.540553 9.900356 -0.183530 73
-3.177772 9.866647 -0.679408 46
-3.188717 9.906376 -0.521729 48
-3.193272 9.941433 -0.362808 27
-2.828159 9.868320 -1.169616 29
-3.210030 9.999416 -0.203483 28
-2.850409 9.952318 -0.698499 58
-2.859035 9.988823 -0.540877 53
-2.894164 10.118028 -0.062450 24
-3.480380 9.782325 -0.660521 81
-3.484390 9.798847 -0.501363 60
-3.135180 9.794726 -0.992073 101
-3.146298 9.835196 -0.836268 101
-2.814442 9.877242 -1.010641 38
-3.207537 10.044195 -0.042326 101
-2.824332 9.918320 -0.855099 36
-3.220250 10.089897 0.120160 21
-3.791787 9.706511 -0.482321 41
-2.854508 10.030735 -0.382414 25
-2.868302 10.085689 -0.223304 19
-3.443048 9.724274 -0.815496 79
-3.490292 9.863009 -0.343416 92
-3.110442 9.768665 -1.148124 59
-3.500638 9.897573 -0.183250 59
-3.143312 9.877679 -0.679408 48
-3.150486 9.906025 -0.521129 55
-3.156132 9.944899 -0.362530 26
-3.177524 10.018185 -0.203638 28
-2.816737 9.966048 -0.698769 52
-2.828494 10.014119 -0.541708 50
-2.861001 10.135768 -0.062498 26
-3.443562 9.786883 -0.660014 91
-3.451490 9.814719 -0.501556 60
-3.100971 9.805611 -0.992073 100
-3.111948 9.846118 -0.836268 101
-2.775637 9.871677 -1.009074 38
-3.172457 10.055330 -0.042326 101
-3.753530 9.703548 -0.641818 14
-2.792929 9.939631 -0.856091 33
-3.185010 10.101076 0.120160 20
-3.753559 9.708507 -0.481766 31
-2.821638 10.048334 -0.382707 28
-3.414087 9.745236 -0.976091 42
-2.835240 10.103340 -0.223475 18
-3.405130 9.724942 -0.814550 79
-3.455842 9.875133 -0.343416 92
-3.081095 9.794631 -1.149905 61
-3.462107 9.898407 -0.183041 56
-3.113601 9.903822 -0.680454 47
-3.119481 9.928395 -0.521729 52
-3.122594 9.959669 -0.362669 27
-3.137751 10.013949 -0.203328 24
-2.783004 9.979664 -0.699038 59
-2.791376 10.016235 -0.541292 51
-2.825603 10.145693 -0.062498 24
-3.409378 9.798843 -0.660014 87
-3.414584 9.819160 -0.501171 62
-3.065536 9.812574 -0.991689 100
-3.076371 9.853115 -0.835945 101
-2.744354 9.892815 -1.010249 36
-3.137338 10.066342 -0.042326 101
-3.719636 9.716592 -0.641818 23
-2.757151 9.945477 -0.855761 39
-3.146163 10.100676 0.120024 23
-3.711080 9.699159 -0.480656 31
-2.787613 10.061975 -0.382853 29
-3.382656 9.764621 -0.976844 79
-2.802089 10.120884 -0.223645 17
-3.381600 9.766913 -0.817072 82
-3.421350 9.887136 -0.343416 81
-3.045707 9.801530 -1.149460 67
-3.422305 9.895312 -0.182762 57
-3.077828 9.910818 -0.680193 44
-3.084805 9.939224 -0.521729 53
-3.085418 9.962879 -0.362391 26
-3.103943 10.028667 -0.203405 28
-2.748145 9.989319 -0.699038 58
-3.141906 10.157375 0.283985 19
-2.760635 10.041324 -0.542124 56
-2.790185 10.155490 -0.062498 24
-3.380362 9.825779 -0.661029 100
-3.382910 9.838568 -0.501556 65
-3.033647 9.830814 -0.992457 101
-3.428074 9.975376 -0.022092 9
-3.045528 9.875210 -0.836914 101
-2.710930 9.906153 -1.010641 35
-3.103433 10.081033 -0.042342 100
-3.675869 9.703355 -0.640094 18
-2.721451 9.951173 -0.855430 36
-3.113324 10.119216 0.120114 22
-3.684358 9.730706 -0.481581 31
-2.749408 10.060050 -0.382414 32
-3.322836 9.700989 -0.969316 51
-2.765797 10.126717 -0.223560 17
-3.347589 9.778623 -0.817072 83
-3.388226 9.902761 -0.343548 71
-3.009266 9.804463 -1.148569 62
-3.389162 9.910940 -0.182831 68
-3.041008 9.913828 -0.679669 53
-3.050238 9.949887 -0.521729 60
-3.055872 9.984524 -0.362808 23
-3.071839 10.042729 -0.203483 28
-2.711867 9.986823 -0.698230 55
-3.709851 9.851609 -0.325306 21
-2.724183 10.038857 -0.541500 50
-3.442419 10.109503 -1.175258 3
-2.757540 10.168548 -0.062522 9
-3.345187 9.829377 -0.660521 100
-3.351552 9.853515 -0.501749 57
-2.998708 9.833203 -0.991689 100
-3.400126 10.001838 -0.022125 51
-3.006952 9.866186 -0.835299 101
-2.677027 9.911245 -1.010249 7
-3.066494 10.079788 -0.042294 101
-3.636661 9.696800 -0.638862 18
-2.689476 9.963992 -0.855761 33
-3.080914 10.133311 0.120160 24
-3.657680 9.757836 -0.482321 28
-2.721238 10.088409 -0.383147 26
-3.298316 9.734585 -0.971574 60
-2.732201 10.135833 -0.223560 20
-3.308749 9.770785 -0.815496 92
-3.354087 9.910156 -0.343416 63
-2.973275 9.802977 -1.147234 70
-3.365248 9.948644 -0.183320 70
-3.008116 9.923858 -0.679669 48
-3.020700 9.971417 -0.522330 54
-3.018101 9.991831 -0.362669 27
-3.038477 10.065407 -0.203715 27
-2.677309 10.004406 -0.698769 48
-3.659765 9.827673 -0.324071 19
-2.690467 10.060351 -0.542124 52
-3.371112 10.020305 -1.163444 35
-3.306594 9.834004 -0.660014 100
-3.312870 9.858158 -0.501363 63
-2.962647 9.844129 -0.991689 100
-3.357076 9.995274 -0.022083 51
-2.973067 9.884776 -0.835945 101
-3.030679 10.094790 -0.042310 101
-3.603873 9.717550 -0.639355 16
-2.657037 9.989192 -0.857083 31
-3.049500 10.163691 0.120387 21
-3.621891 9.771177 -0.482321 29
-2.682190 10.090589 -0.382853 26
-3.268935 9.765490 -0.973456 58
-2.697086 10.153508 -0.223730 20
-3.280506 9.805536 -0.817387 89
-3.319010 9.926174 -0.343548 81
-2.940745 9.825233 -1.148569 68
-3.330029 9.964705 -0.183390 74
-2.971723 9.934816 -0.679669 42
-2.982989 9.978594 -0.522130 54
-2.982564 9.994152 -0.362391 25
-3.002734 10.067780 -0.203560 27
-3.581094 9.709949 -0.798150 50
-2.647151 10.024812 -0.699577 49
-3.614687 9.806002 -0.322959 19
-2.658124 10.073077 -0.542332 53
-3.244986 9.752249 -1.131065 101
-3.274016 9.844898 -0.660014 97
-3.280249 9.869060 -0.501363 59
-2.933517 9.865310 -0.992841 100
-3.313952 9.975940 -0.022016 38
-2.939300 9.890711 -0.835622 101
-2.998607 10.108536 -0.042326 100
-3.574652 9.736843 -0.639847 18
-2.624214 9.997865 -0.857083 30
-3.014966 10.169816 0.120341 22
-3.588403 9.779268 -0.482136 36
-2.653130 10.114799 -0.383440 32
-3.235629 9.772381 -0.973080 69
-2.666843 10.173897 -0.223986 16
-3.247105 9.812448 -0.817072 88
-3.285249 9.933188 -0.343416 69
-2.907481 9.830982 -1.148124 66
-3.293670 9.964146 -0.183180 85
-2.934741 9.929156 -0.678623 42
-2.947032 9.976776 -0.521529 52
-2.945400 9.996833 -0.362113 28
-2.972092 10.093547 -0.203870 28
-3.541710 9.707404 -0.796920 57
-2.611136 10.030128 -0.699307 49
-3.588654 9.841097 -0.323700 16
-2.621941 10.078428 -0.542124 50
-3.203472 9.740854 -1.128440 101
-3.240878 9.860059 -0.660267 97
-3.245780 9.880450 -0.501363 62
-2.901306 9.883130 -0.993610 100
-3.272871 9.968445 -0.021974 39
-2.904757 9.900910 -0.835622 101
-2.965552 10.126619 -0.042358 101
-3.543368 9.756767 -0.640340 15
-2.588301 10.003104 -0.856752 30
-2.976078 10.168762 0.120205 19
-3.551518 9.784223 -0.481766 35
-2.615805 10.116260 -0.383147 27
-3.210167 9.810108 -0.975715 61
-2.628312 10.171528 -0.223730 20
-3.215313 9.831303 -0.817702 85
-3.246829 9.933195 -0.343023 60
-2.872033 9.837255 -1.147679 77
-3.258868 9.975582 -0.183180 72
-2.902300 9.947003 -0.679146 46
-2.914425 9.994673 -0.521930 60
-2.919418 10.037762 -0.363224 25
-2.931259 10.084659 -0.203483 30
-3.501034 9.700952 -0.795382 43
-2.579085 10.050779 -0.700115 51
-3.550210 9.842280 -0.323329 15
-2.585752 10.083650 -0.541916 54
-3.157161 9.714165 -1.124064 101
-3.557997 9.868950 -0.162970 2
-3.203974 9.863718 -0.659760 100
-3.208804 9.884119 -0.500978 55
-2.867898 9.897022 -0.993994 100
-3.242993 9.995028 -0.022008 46
-2.873506 9.922479 -0.836591 101
-3.264512 10.066991 0.140387 35
-2.925742 10.121538 -0.042294 100
-3.505240 9.757805 -0.639601 16
-2.557308 10.027529 -0.858074 12
-3.520044 9.804082 -0.482136 30
-2.580477 10.125328 -0.383147 28
-3.169778 9.802309 -0.973833 71
-2.593777 10.184516 -0.223815 9
-3.178523 9.834877 -0.817072 89
-3.212136 9.944468 -0.343023 52
-2.837677 9.847221 -1.147679 62
-3.225256 9.990703 -0.183250 74
-2.868665 9.960909 -0.679408 50
-3.829679 9.709783 -0.463022 1
-2.877310 9.997108 -0.521529 58
-2.881207 10.036320 -0.362808 23
-2.899444 10.106334 -0.203715 27
-3.475287 9.735617 -0.797227 48
-2.545001 10.063581 -0.700384 49
-3.522586 9.873428 -0.323947 15
-2.552473 10.100366 -0.542332 51
-3.125643 9.732704 -1.124939 101
-3.532907 9.907687 -0.163405 35
-3.169444 9.874867 -0.659760 100
-3.177806 9.906717 -0.501556 60
-2.830948 9.899372 -0.993226 100
-3.210329 10.013968 -0.022025 54
-2.838598 9.932521 -0.836591 101
-3.225433 10.066980 0.140228 32
-2.892151 10.139507 -0.042326 101
-3.473409 9.777655 -0.640094 16
-3.483982 9.812715 -0.481951 30
-2.545535 10.138290 -0.383293 28
-3.136216 9.817279 -0.974209 67
-3.143576 9.846103 -0.817072 85
-3.184033 9.978683 -0.343810 68
-3.187208 9.994511 -0.183111 81
-2.835280 9.978763 -0.679931 45
-3.806625 9.753169 -0.464441 60
-2.845920 10.022701 -0.522330 49
-2.851604 10.065547 -0.363502 25
-3.421213 9.685585 -0.951102 26
-2.861969 10.108697 -0.203560 28
-3.441283 9.747688 -0.797227 45
-2.510822 10.076275 -0.700654 51
-3.480118 9.863043 -0.323206 16
-2.522027 10.128594 -0.543372 56
-3.100068 9.770083 -1.128002 101
-3.504952 9.938818 -0.163716 41
-3.133748 9.882066 -0.659506 100
-3.139584 9.906323 -0.500978 65
-2.798538 9.916858 -0.993994 100
-3.182600 10.047993 -0.022075 54
-2.803910 9.942369 -0.836591 101
-3.189066 10.074365 0.140175 26
-3.772936 9.723023 -0.623274 54
-2.858907 10.157242 -0.042358 101
-3.436611 9.782186 -0.639601 17
-3.447061 9.817276 -0.481581 33
-2.513010 10.158755 -0.383733 22
-3.100729 9.824369 -0.973833 69
-3.109188 9.857017 -0.817072 80
-3.145576 9.978298 -0.343416 71
-3.158310 10.024648 -0.183460 78
-2.801507 9.992442 -0.680193 47
-3.775436 9.773852 -0.464795 59
-2.811994 10.036421 -0.522531 52
-2.815376 10.071589 -0.363363 26
-3.390010 9.704988 -0.951840 39
-2.833122 10.141736 -0.204025 28
-3.403292 9.748345 -0.796304 42
-2.474682 10.081102 -0.700384 47
-3.449620 9.886456 -0.323577 15
-2.483801 10.125698 -0.542748 52
-3.064756 9.777051 -1.127565 101
-3.454434 9.905675 -0.162970 27
-3.104008 9.908181 -0.660521 95
-3.104986 9.917222 -0.500978 70
-2.759633 9.911223 -0.992457 101
-3.146313 10.055223 -0.022067 53
-2.769188 9.952096 -0.836591 101
-3.161043 10.108339 0.140493 32
-3.741836 9.743589 -0.623751 64
-2.821294 10.159451 -0.042326 101
-3.399824 9.786579 -0.639109 15
-3.410150 9.821699 -0.481211 29
-2.482266 10.186884 -0.384466 20
-3.068788 9.842736 -0.974586 60
-3.073575 9.864002 -0.816757 75
-3.108349 9.981584 -0.343154 69
-3.120922 10.027974 -0.183320 69
-2.765546 9.998313 -0.679931 47
-3.737016 9.775774 -0.464263 57
-2.774815 10.038474 -0.522130 54
-2.774834 10.062102 -0.362669 28
-3.346958 9.690428 -0.949258 44
-2.794482 10.140007 -0.203793 26
-3.365307 9.748867 -0.795382 44
-2.439464 10.089683 -0.700384 47
-3.402036 9.860646 -0.322341 15
-2.448449 10.134304 -0.542748 56
-3.036496 9.806678 -1.129753 101
-3.417236 9.910108 -0.162846 27
-3.068251 9.915134 -0.660267 100
-3.073939 9.939437 -0.501556 65
-2.728252 9.932295 -0.993610 101
-3.112445 10.069945 -0.022075 52
-2.733466 9.957832 -0.836268 101
-3.119928 10.100177 0.140228 37
-3.710727 9.764023 -0.624228 46
-2.787024 10.173053 -0.042342 101
-3.367087 9.802113 -0.639355 16
-3.376014 9.833485 -0.481211 31
-2.440358 10.168231 -0.383440 28
-3.033429 9.849524 -0.974209 69
-3.040508 9.878417 -0.817072 80
-3.078422 10.007586 -0.343679 57
-3.084978 10.034905 -0.183250 72
-2.734056 10.019382 -0.680716 44
-3.696068 9.769969 -0.463377 52
-2.741105 10.051872 -0.522330 54
-2.744940 10.091014 -0.363363 27
-3.314399 9.705821 -0.949627 40
-2.761168 10.157418 -0.203948 32
-3.331256 9.760555 -0.795382 47
-2.404230 10.098136 -0.700384 21
-3.372759 9.887597 -0.322835 14
-2.412134 10.138903 -0.542540 52
-3.002246 9.817218 -1.129753 101
-3.389075 9.940904 -0.163157 27
-3.034788 9.929602 -0.660521 100
-3.036891 9.942464 -0.501171 63
-2.694607 9.945601 -0.993994 100
-3.079611 10.088400 -0.022092 52
-2.698690 9.967313 -0.836268 101
-3.082318 10.103354 0.140122 40
-3.668189 9.754492 -0.622796 47
-3.330283 9.806246 -0.638862 15
-3.342952 9.848993 -0.481396 36
-2.409446 10.196138 -0.384173 6
-3.001347 9.867673 -0.974962 56
-3.389848 9.992679 -0.001842 17
-3.004848 9.885156 -0.816757 82
-3.038822 10.002970 -0.343154 74
-3.048769 10.041786 -0.183180 82
-2.700102 10.032720 -0.680977 40
-3.666145 9.794039 -0.463909 57
-2.707038 10.065237 -0.522531 56
-3.346561 9.892421 -1.128957 8
-3.691780 9.867579 -0.305327 14
-2.713843 10.115978 -0.363919 25
-3.283047 9.724879 -0.950365 35
-2.724660 10.163132 -0.203870 32
-3.300991 9.783461 -0.796304 53
-3.340779 9.906887 -0.323082 14
-2.376728 10.147262 -0.542540 53
-2.965661 9.820025 -1.128877 101
-3.351800 9.945093 -0.163032 30
-3.000109 9.940134 -0.660521 100
-3.001013 9.949179 -0.500978 62
-2.659874 9.954947 -0.993994 15
-3.045532 10.102918 -0.022100 50
-3.608337 9.692962 -0.777679 16
-2.663881 9.976672 -0.836268 101
-3.050493 10.125542 0.140281 45
-3.628547 9.752268 -0.621842 47
-3.301115 9.832950 -0.639847 17
-3.306011 9.853026 -0.481026 30
-2.964593 9.870461 -0.974209 60
-3.351131 9.993073 -0.001840 16
-2.972616 9.903222 -0.817387 77
-3.008482 10.028833 -0.343679 66
-3.013698 10.052367 -0.183180 83
-2.664041 10.038226 -0.680716 45
-3.389305 10.129516 -1.568164 25
-3.631935 9.806776 -0.463909 54
-2.671887 10.074625 -0.522531 50
-3.260299 9.749410 -1.111331 101
-3.647598 9.854158 -0.304516 41
-2.672050 10.094019 -0.362808 28
-3.248211 9.728172 -0.949627 34
-2.691936 10.175985 -0.203948 28
-3.267238 9.790580 -0.795997 53
-3.309162 9.921707 -0.323206 15
-2.347562 10.174547 -0.543580 53
-2.934223 9.833613 -1.129315 101
-3.322603 9.967534 -0.163219 26
-2.970577 9.961497 -0.661283 100
-2.970329 9.966721 -0.501363 65
-3.008649 10.101442 -0.022075 53
-3.574854 9.701109 -0.777379 39
-2.633908 9.996997 -0.837236 101
-3.018120 10.139411 0.140334 38
-3.597645 9.767965 -0.622081 44
-3.267362 9.840010 -0.639601 17
-3.277243 9.875262 -0.481581 32
-2.932012 9.880189 -0.974209 61
-3.321921 10.015465 -0.001842 17
-2.935410 9.897678 -0.816126 67
-2.976550 10.042527 -0.343810 66
-2.980571 10.062239 -0.183180 76
-2.629969 10.043080 -0.680454 44
-3.359670 10.151890 -1.569907 72
-3.599631 9.818680 -0.463909 60
-2.638725 10.083362 -0.522531 60
-3.226955 9.756309 -1.110901 101
-3.605526 9.839828 -0.303705 33
-2.640837 10.118757 -0.363363 25
-3.215482 9.743234 -0.949996 37
-2.653371 10.173710 -0.203715 30
-3.230544 9.794350 -0.795382 52
-3.272005 9.925604 -0.322959 13
-2.313801 10.190471 -0.543996 45
-2.901003 9.847610 -1.129753 101
-3.286538 9.975272 -0.163157 30
-2.930150 9.952659 -0.660014 100
-2.936648 9.980862 -0.501556 60
-2.980140 10.134909 -0.022125 45
-3.539603 9.709782 -0.777080 40
-2.597994 10.002271 -0.836914 101
-2.982709 10.149884 0.140334 25
-3.560792 9.772961 -0.621603 50
-3.229259 9.839975 -0.638862 17
-3.239016 9.875252 -0.481026 32
-2.897506 9.890363 -0.974209 63
-3.284448 10.019398 -0.001840 17
-2.906445 9.926999 -0.817702 89
-2.943722 10.060530 -0.344072 63
-2.946552 10.076421 -0.183250 82
-2.598887 10.067658 -0.681501 48
-3.319292 10.148510 -1.567583 95
-3.561248 9.819915 -0.463377 59
-2.602513 10.088643 -0.522330 56
-3.184230 9.741054 -1.107892 101
-3.567069 9.841076 -0.303357 34
-2.608488 10.139528 -0.363780 25
-3.177747 9.743038 -0.948889 37
-2.618837 10.186784 -0.203793 13
-3.200044 9.816942 -0.796304 58
-3.237339 9.936965 -0.322959 13
-2.279958 10.206282 -0.544412 32
-2.872162 9.876765 -1.131940 101
-3.254174 9.994290 -0.163281 20
-2.896505 9.966660 -0.660267 89
-2.899561 9.983377 -0.501171 68
-2.936939 10.118360 -0.022067 47
-3.505688 9.722077 -0.777080 42
-2.565041 10.019004 -0.837559 101
-3.525303 9.781574 -0.621365 48
-3.192429 9.843593 -0.638370 18
-3.205757 9.890299 -0.481211 29
-2.865177 9.908068 -0.974962 66
-3.260548 10.065049 -0.001847 16
-2.867347 9.921762 -0.816441 77
-3.270817 10.102483 0.161252 3
-3.836883 9.699233 -0.603249 1
-2.906368 10.063062 -0.343810 79
-2.914688 10.098172 -0.183460 78
-2.562744 10.072801 -0.681239 42
-3.272893 10.126143 -1.562354 85
-3.526948 9.832286 -0.463377 53
-2.571219 10.113153 -0.523131 52
-3.148986 9.748324 -1.107462 101
-3.538093 9.868523 -0.303821 29
-2.572144 10.144685 -0.363641 26
-3.143764 9.754057 -0.948889 42
-3.528725 9.862776 -0.142611 1
-3.163340 9.820451 -0.795689 56
-3.201418 9.944395 -0.322835 14
-2.837662 9.886733 -1.131940 101
-3.218036 10.001783 -0.163219 27
-2.864974 9.988229 -0.661029 100
-2.865754 9.997292 -0.501363 65
-2.904845 10.140103 -0.022092 55
-3.470331 9.730519 -0.776780 45
-2.533875 10.043380 -0.838851 101
-3.495082 9.805131 -0.622081 50
-3.161573 9.866124 -0.639109 19
-3.169846 9.897672 -0.481026 30
-2.830406 9.918056 -0.974962 56
-3.226444 10.080234 -0.001847 15
-2.837979 9.950935 -0.818017 82
-3.245093 10.144374 0.161738 21
-3.801366 9.708920 -0.603018 59
-2.867730 10.061670 -0.343416 66
-2.877004 10.100657 -0.183320 72
-3.448532 9.715863 -0.934630 15
-2.532178 10.101104 -0.682547 42
-3.246913 10.167744 -1.567002 50
-3.493705 9.848388 -0.463554 50
-2.532727 10.110507 -0.522531 64
-3.114686 9.759338 -1.107462 101
-3.495351 9.858293 -0.303125 32
-2.540592 10.169115 -0.364197 24
-3.114532 9.780151 -0.950365 36
-3.515623 9.935362 -0.143483 61
-3.132670 9.842834 -0.796612 47
-3.169110 9.963130 -0.323082 15
-2.803133 9.896578 -1.131940 101
-3.183104 10.012956 -0.163219 28
-2.832266 10.005850 -0.661537 88
-3.795228 9.749969 -0.444000 65
-2.834102 10.018767 -0.501941 63
-2.870520 10.154030 -0.022100 50
-3.437671 9.746336 -0.777080 40
-3.459507 9.813506 -0.621842 48
-3.127114 9.877100 -0.639109 17
-3.137688 9.916295 -0.481396 38
-2.800086 9.943209 -0.976468 53
-3.188826 10.083807 -0.001846 15
-2.803226 9.960782 -0.818017 75
-3.212073 10.163266 0.161859 22
-3.763124 9.710959 -0.602326 55
-2.835838 10.083165 -0.343810 69
-2.843893 10.118338 -0.183460 76
-3.410638 9.716565 -0.933546 29
-2.493075 10.094381 -0.681501 48
-3.179251 10.077112 -1.551315 29
-3.459306 9.860523 -0.463554 55
-2.498377 10.123165 -0.522731 53
-3.082992 9.777737 -1.108321 101
-3.464887 9.881753 -0.303473 34
-2.505080 10.177921 -0.364197 24
-3.079178 9.787165 -0.949996 38
-3.471673 9.921146 -0.143101 40
-3.098293 9.853709 -0.796612 48
-3.133115 9.970317 -0.322959 15
-3.148133 10.024005 -0.163219 25
-2.794100 10.004142 -0.660775 97
-3.762608 9.766887 -0.444170 82
-2.799112 10.028599 -0.501941 65
-2.833984 10.160135 -0.022092 53
-3.404943 9.762042 -0.777379 41
-3.422601 9.817982 -0.621365 48
-3.096193 9.899386 -0.639847 18
-3.101863 9.923374 -0.481211 32
-2.762163 9.941412 -0.975339 68
-3.154800 10.098695 -0.001847 19
-2.768440 9.970506 -0.818017 82
-3.165849 10.140057 0.161312 20
-3.723483 9.709122 -0.601402 46
-2.800624 10.093002 -0.343810 69
-2.808556 10.128203 -0.183460 74
-3.379313 9.735938 -0.934269 33
-2.459711 10.110779 -0.682024 43
-3.125216 10.027695 -1.542019 60
-3.424865 9.872539 -0.463554 55
-2.464913 10.139587 -0.523131 57
-3.051208 9.796032 -1.109181 101
-3.431682 9.897565 -0.303589 29
-2.468596 10.182718 -0.364058 23
-3.046178 9.801657 -0.950365 36
-3.430482 9.914306 -0.142829 31
-3.063878 9.864465 -0.796612 52
-3.093551 9.965919 -0.322465 14
-3.110753 10.027293 -0.163094 28
-2.762343 10.025379 -0.661537 100
-3.719951 9.757555 -0.443152 84
-2.763028 10.034457 -0.501749 70
-2.790011 10.139112 -0.022025 25
-3.360442 9.743702 -0.774980 42
-3.388309 9.829869 -0.621365 46
-3.055727 9.891061 -0.638616 18
-3.068384 9.937959 -0.481396 35
-2.728497 9.954834 -0.975715 61
-3.118351 10.105824 -0.001846 16
-2.734673 9.983954 -0.818333 79
-3.126899 10.139580 0.161130 17
-3.689569 9.722060 -0.601402 39
-2.760098 10.083437 -0.343154 79
-2.774240 10.141803 -0.183530 86
-3.349187 9.758979 -0.935352 31
-2.422543 10.111540 -0.681501 42
-3.086700 10.027196 -1.540276 82
-3.387790 9.876873 -0.463200 51
-2.429504 10.148130 -0.523131 55
-3.018164 9.810424 -1.109611 101
-3.399705 9.917048 -0.303821 31
-2.427383 10.159743 -0.362946 5
-3.018335 9.826934 -0.951840 39
-3.402767 9.940763 -0.143047 34
-3.028809 9.866945 -0.795997 47
-3.065177 9.991412 -0.322959 15
-3.077485 10.037554 -0.163094 30
-2.725940 10.022928 -0.660775 100
-3.684751 9.762360 -0.442813 75
-2.731833 10.051275 -0.502134 64
-3.331976 9.766117 -0.775880 46
-3.350539 9.825934 -0.620410 48
-3.027573 9.916413 -0.639601 19
-3.034245 9.944258 -0.481211 37
-2.693390 9.956139 -0.974962 62
-3.078988 10.096978 -0.001842 17
-3.645440 9.697693 -0.758990 15
-2.704672 10.004517 -0.819278 84
-3.100253 10.172849 0.161495 19
-3.661523 9.745456 -0.602095 42
-2.731858 10.111832 -0.343810 69
-3.323673 9.784849 -1.097082 43
-2.736424 10.135502 -0.183250 78
-3.310403 9.751170 -0.933546 31
-2.389915 10.123403 -0.681762 18
-3.053432 10.037376 -1.540276 80
-3.356302 9.891838 -0.463377 50
-2.395838 10.156131 -0.523131 57
-2.984458 9.816574 -1.109181 101
-3.361665 9.913121 -0.303357 31
-2.975922 9.810730 -0.949258 35
-3.368047 9.952580 -0.143047 33
-2.997819 9.888907 -0.796920 53
-3.389747 10.022259 0.018466 13
-3.031441 10.005877 -0.323082 13
-3.045905 10.059719 -0.163281 28
-2.693005 10.040093 -0.661283 94
-3.646457 9.763931 -0.442304 71
-2.695697 10.056890 -0.501941 62
-3.412477 10.111876 -1.433451 7
-3.683115 9.867154 -0.284991 0
-3.302965 9.792807 -0.777080 39
-3.320046 9.848921 -0.621126 45
-2.992940 9.926921 -0.639601 17
-3.001820 9.962440 -0.481581 33
-2.662726 9.980870 -0.976468 43
-3.047184 10.119155 -0.001844 18
-3.603222 9.687924 -0.757237 79
-2.666651 10.002337 -0.818333 81
-3.060114 10.168289 0.161252 17
-3.627483 9.758178 -0.602095 38
-2.696545 10.121306 -0.343810 74
-3.275569 9.754913 -1.092437 101
-2.703086 10.152721 -0.183390 74
-3.278880 9.770220 -0.934269 32
-3.024069 10.066925 -1.543181 50
-3.321753 9.903493 -0.463377 55
-2.362180 10.172215 -0.523532 57
-2.950174 9.826932 -1.109181 101
-3.329582 9.932377 -0.303589 30
-2.945040 9.832519 -0.950365 35
-3.329432 9.952913 -0.142884 32
-2.958678 9.884038 -0.795689 51
-3.347103 10.011278 0.018424 29
-2.996484 10.016401 -0.323082 14
-3.003905 10.047297 -0.162908 26
-2.658988 10.053286 -0.661537 99
-3.610991 9.772842 -0.442135 84
-2.660618 10.066228 -0.501941 63
-3.363403 10.082345 -1.427593 36
-3.633455 9.838675 -0.283801 36
-3.263775 9.789121 -0.775880 46
-3.285725 9.860424 -0.621126 53
-2.958402 9.937269 -0.639601 16
-2.966038 9.968983 -0.481396 36
-3.012014 10.129679 -0.001844 16
-3.568169 9.696639 -0.756944 95
-2.630893 10.007679 -0.818017 72
-3.020235 10.163517 0.161009 15
-3.592203 9.766966 -0.601864 45
-2.664454 10.142202 -0.344204 69
-3.231674 9.736020 -1.089059 100
-2.670903 10.173641 -0.183599 78
-3.243719 9.777752 -0.933907 35
-3.286144 9.911156 -0.463200 56
-2.326921 10.180338 -0.523532 59
-2.918369 9.844720 -1.110041 101
-3.291376 9.932467 -0.303241 31
-2.909570 9.838919 -0.949996 36
-3.299691 9.979665 -0.143101 35
-2.928680 9.909604 -0.796920 52
-3.314647 10.030497 0.018438 27
-2.961502 10.026800 -0.323082 15
-2.975608 10.080736 -0.163281 29
-2.623879 10.062506 -0.661537 99
-3.579600 9.792894 -0.442474 84
-2.626472 10.079320 -0.502134 58
-3.321981 10.075199 -1.424931 41
-3.599089 9.851298 -0.283801 19
-3.230833 9.804242 -0.776180 44
-3.250036 9.868041 -0.620887 52
-2.924822 9.951365 -0.639847 17
-2.931221 9.979276 -0.481396 32
-2.980016 10.151645 -0.001847 16
-3.541123 9.727778 -0.758406 97
-2.597945 10.024522 -0.818648 84
-3.559453 9.783197 -0.602095 44
-2.628032 10.147572 -0.344072 69
-3.196429 9.743463 -1.088637 100
-2.633370 10.175159 -0.183460 43
-3.213292 9.800371 -0.934991 30
-3.250284 9.918769 -0.463022 52
-2.292248 10.192296 -0.523732 52
-2.885103 9.858664 -1.110471 101
-3.254196 9.936296 -0.303010 31
-2.876325 9.852839 -0.950365 39
-3.259866 9.975915 -0.142884 34
-2.892954 9.915938 -0.796612 53
-3.279614 10.042006 0.018438 23
-2.924246 10.029400 -0.322835 15
-2.938164 10.083382 -0.163157 29
-2.588738 10.071604 -0.661537 94
-3.542676 9.797813 -0.442135 82
-2.593261 10.096167 -0.502519 60
-3.292933 10.105579 -1.427593 33
-3.560603 9.852520 -0.283477 20
-3.194120 9.807875 -0.775580 44
-3.219278 9.890716 -0.621603 51
-2.891180 9.965348 -0.640094 18
-2.895257 9.985609 -0.481211 38
-2.945676 10.165828 -0.001847 15
-3.511199 9.751340 -0.759282 100
-2.564911 10.041257 -0.819278 90
-3.526634 9.799320 -0.602326 43
-2.590617 10.148936 -0.343810 77
-3.159945 9.746993 -1.087792 100
-3.175379 9.800159 -0.933907 34
-3.218103 9.937657 -0.463377 51
-2.849569 9.864854 -1.110041 101
-3.225648 9.966616 -0.303589 33
-2.845269 9.874287 -0.951471 38
-3.226300 9.991024 -0.142938 36
-2.861663 9.937465 -0.797535 51
-3.244570 10.053384 0.018438 27
-3.834569 9.722842 -0.584339 79
-2.891441 10.047228 -0.323082 15
-2.902942 10.093578 -0.163157 28
-3.480701 9.727432 -0.916602 18
-2.554521 10.084455 -0.661791 93
-3.505738 9.802603 -0.441795 91
-2.557959 10.105167 -0.502519 59
-3.241799 10.067970 -1.420671 27
-3.527493 9.868669 -0.283585 20
-3.162249 9.826578 -0.776180 44
-3.183433 9.898117 -0.621365 51
-2.856245 9.975418 -0.640094 17
-3.243549 10.102524 0.181501 14
-2.860232 9.995698 -0.481211 35
-2.908901 10.172251 -0.001847 15
-3.475636 9.759837 -0.758990 98
-2.530630 10.054063 -0.819594 71
-3.488206 9.800350 -0.601633 47
-2.555942 10.161846 -0.343941 85
-3.136623 9.792120 -1.091592 101
-3.145791 9.826429 -0.935352 35
-3.181937 9.945101 -0.463200 55
-2.817042 9.882463 -1.110901 101
-3.188145 9.970281 -0.303357 34
-2.808605 9.876496 -0.950733 37
-3.193837 10.009846 -0.143047 36
-2.822597 9.932048 -0.796304 52
-3.209458 10.064648 0.018438 30
-3.781727 9.687803 -0.581437 48
-2.859629 10.068797 -0.323453 15
-2.867691 10.103650 -0.163157 29
-3.429444 9.690694 -0.912007 47
-2.521238 10.101056 -0.662299 96
-3.479495 9.837386 -0.442813 84
-2.522670 10.114035 -0.502519 60
-3.189809 10.026335 -1.413216 11
-3.493024 9.880922 -0.283585 21
-3.131554 9.848960 -0.777080 43
-3.150072 9.912974 -0.621603 55
-2.818150 9.973802 -0.639355 18
-3.211893 10.125221 0.181706 47
-3.793009 9.760303 -0.424236 17
-2.826409 10.009466 -0.481396 33
-2.869030 10.166945 -0.001844 16
-3.438897 9.764385 -0.758406 100
-3.452649 9.808700 -0.601402 46
-2.521416 10.174587 -0.344072 100
-3.096422 9.784048 -1.089481 101
-3.502988 9.957056 -0.123436 65
-3.113873 9.844947 -0.936074 29
-3.148407 9.959957 -0.463377 52
-2.781451 9.888408 -1.110471 92
-3.148504 9.966098 -0.302894 31
-2.773037 9.882405 -0.950365 34
-3.157674 10.017118 -0.142992 38
-2.788987 9.945681 -0.796612 53
-3.173104 10.071975 0.018431 21
-3.749326 9.704670 -0.581660 50
-2.823386 10.074868 -0.323329 15
-2.836720 10.129004 -0.163405 25
-3.404809 9.728931 -0.914481 51
-2.485010 10.105919 -0.662045 85
-3.438538 9.830610 -0.441965 84
-2.487350 10.122779 -0.502519 66
-3.151225 10.026062 -1.411619 13
-3.459831 9.896830 -0.283693 22
-3.092374 9.844609 -0.775880 40
-3.116646 9.927719 -0.621842 52
-2.791895 10.014344 -0.641325 18
-3.175334 10.132555 0.181638 46
-3.760350 9.777214 -0.424398 36
-2.792524 10.023121 -0.481581 32
-2.836742 10.188457 -0.001846 11
-3.407416 9.783864 -0.758990 100
-3.417077 9.816920 -0.601171 46
-2.485885 10.183327 -0.344072 94
-3.062251 9.794797 -1.089481 101
-3.453754 9.927670 -0.122921 39
-3.078301 9.851954 -0.935713 31
-3.107666 9.951815 -0.462491 55
-3.114888 9.980844 -0.303010 30
-2.739560 9.895871 -0.950733 33
-3.126230 10.039544 -0.143156 33
-2.758491 9.970735 -0.797842 49
-3.136722 10.079175 0.018424 25
-3.715412 9.717705 -0.581660 48
-2.786064 10.076957 -0.323082 17
-2.798154 10.127278 -0.163219 26
-3.378650 9.763348 -0.916602 59
-2.448793 10.110649 -0.661791 100
-3.401603 9.834995 -0.441626 94
-2.452024 10.131394 -0.502519 66
-3.103302 9.995346 -1.405761 15
-3.423981 9.905059 -0.283585 23
-3.055661 9.847714 -0.775280 44
-3.080834 9.934711 -0.621603 51
-2.753819 10.012460 -0.640586 17
-3.135290 10.128271 0.181364 40
-3.710633 9.749165 -0.422617 27
-2.758664 10.036636 -0.481766 37
-3.374634 9.799438 -0.759282 96
-3.384191 9.832529 -0.601402 44
-2.450440 10.191914 -0.344072 10
-3.032849 9.820594 -1.091170 101
-3.413988 9.924497 -0.122734 40
-3.040491 9.851182 -0.934630 37
-3.077754 9.977835 -0.463200 58
-3.083708 10.003075 -0.303357 32
-2.707099 9.913058 -0.951471 38
-3.081760 10.019813 -0.142720 36
-3.669611 9.694376 -0.739383 12
-2.722620 9.976456 -0.797535 51
-3.102695 10.093886 0.018431 27
-3.681468 9.730615 -0.581660 50
-2.754028 10.098192 -0.323453 14
-3.339941 9.756287 -1.074752 3
-2.765941 10.148560 -0.163405 27
-3.341969 9.767542 -0.915895 59
-2.414412 10.123018 -0.662045 96
-3.371130 9.858153 -0.442135 82
-2.418497 10.147665 -0.502904 67
-3.052121 9.953055 -1.398306 15
-3.390678 9.920734 -0.283693 22
-3.025942 9.873575 -0.776480 43
-3.047306 9.949222 -0.621842 49
-2.716762 10.014305 -0.640094 17
-3.096408 10.127680 0.181159 40
-3.676579 9.762057 -0.422617 27
-2.725704 10.053918 -0.482136 37
-3.445248 10.113544 -1.340265 2
-3.337836 9.803606 -0.758698 100
-3.348562 9.840502 -0.601171 46
-2.997390 9.827316 -1.090748 101
-3.381900 9.943927 -0.122828 44
-3.011893 9.880788 -0.936435 35
-3.042906 9.988517 -0.463200 59
-3.047607 10.009953 -0.303241 34
-2.673516 9.926293 -0.951840 35
-3.050253 10.041989 -0.142884 35
-3.630151 9.692182 -0.738245 34
-2.689852 9.993601 -0.798150 44
-3.065118 10.097000 0.018417 28
-3.646079 9.739666 -0.581437 52
-2.720839 10.115466 -0.323700 14
-3.307140 9.771654 -1.075167 80
-2.728423 10.150428 -0.163281 29
-3.304024 9.767825 -0.914835 57
-2.380886 10.139157 -0.662553 67
-3.334139 9.862288 -0.441795 87
-2.383973 10.159935 -0.503097 63
-3.039191 10.035739 -1.408424 12
-3.352188 9.921144 -0.283368 22
-2.991458 9.884078 -0.776480 48
-3.014870 9.967443 -0.622319 48
-2.683853 10.031441 -0.640586 19
-3.061037 10.138427 0.181159 43
-3.641085 9.771087 -0.422455 25
-2.687496 10.051791 -0.481581 36
-3.398524 10.091657 -1.335784 13
-3.304867 9.818978 -0.758990 100
-3.315465 9.855915 -0.601402 51
-2.963068 9.837719 -1.090748 101
-3.352268 9.970836 -0.123015 48
-2.976236 9.887426 -0.936074 29
-3.383933 10.070594 0.038939 12
-3.005719 9.991425 -0.462845 53
-3.011497 10.016701 -0.303125 30
-2.639899 9.939407 -0.952209 26
-3.016357 10.056399 -0.142938 35
-3.599095 9.712267 -0.738814 35
-2.658037 10.014489 -0.799073 51
-3.034465 10.122959 0.018445 27
-3.617624 9.767308 -0.582330 56
-2.684494 10.121036 -0.323577 14
-3.262918 9.752954 -1.071850 75
-2.691946 10.156025 -0.163219 24
-3.271167 9.783079 -0.915188 59
-3.295879 9.862500 -0.441287 100
-2.346671 10.160415 -0.502712 61
-3.311179 9.913831 -0.282828 22
-2.956905 9.894469 -0.776480 43
-2.975444 9.962615 -0.621365 47
-2.648745 10.040768 -0.640586 18
-3.024411 10.145240 0.181091 28
-3.601353 9.768764 -0.421808 28
-2.653326 10.064997 -0.481766 38
-3.356924 10.084659 -1.333295 52
-3.638853 9.875603 -0.264570 25
-3.265442 9.815344 -0.757821 100
-3.278418 9.859884 -0.600940 49
-2.929731 9.851849 -1.091170 101
-3.317328 9.982514 -0.123015 45
-2.942716 9.901610 -0.936435 33
-3.344851 10.070998 0.038895 16
-2.974103 10.013388 -0.463377 53
-2.978644 10.034862 -0.303357 32
-2.980099 10.063032 -0.142884 34
-3.559678 9.709786 -0.737676 34
-2.621044 10.015989 -0.798457 47
-2.997976 10.129654 0.018438 27
-3.579385 9.768627 -0.581660 51
-2.651172 10.138081 -0.323824 14
-3.218862 9.734065 -1.068533 79
-2.658501 10.173100 -0.163343 16
-3.240749 9.805787 -0.916249 54
-3.266446 9.889124 -0.441965 89
-2.314732 10.184128 -0.503482 62
-3.280313 9.936720 -0.283152 23
-2.924606 9.912382 -0.777080 41
-2.940650 9.972940 -0.621365 49
-2.615690 10.057680 -0.641079 18
-3.574078 9.800049 -0.422617 22
-2.620187 10.081932 -0.482136 40
-3.305577 10.047303 -1.326823 42
-3.594773 9.861946 -0.263866 23
-3.233653 9.834262 -0.758406 100
-3.241487 9.863680 -0.600478 48
-2.895324 9.862015 -1.091170 101
-3.283710 9.997833 -0.123062 43
-2.904771 9.900354 -0.935352 31
-3.300944 10.056009 0.038792 17
-3.873518 9.687073 -0.563195 2
-2.939131 10.023708 -0.463377 55
-2.943597 10.045197 -0.303357 30
-2.948959 10.080536 -0.142992 36
-3.532903 9.736540 -0.738814 36
-2.591803 10.040072 -0.799688 45
-2.965490 10.143379 0.018445 24
-3.546972 9.780443 -0.581660 50
-2.613543 10.131331 -0.323329 14
-3.185328 9.740905 -1.068118 75
-3.205739 9.808906 -0.915542 43
-3.234875 9.903701 -0.442135 79
-2.283565 10.203444 -0.504060 15
-3.246103 9.943742 -0.283044 22
-2.892835 9.925856 -0.777379 42
-2.913145 10.001805 -0.622558 51
-2.584307 10.074033 -0.641571 16
-3.540204 9.808087 -0.422455 26
-2.588724 10.098307 -0.482506 31
-3.258734 10.016694 -1.321346 19
-3.571548 9.900143 -0.264570 23
-3.203490 9.852519 -0.758990 100
-3.209994 9.878173 -0.600709 55
-2.863712 9.875382 -1.091592 101
-3.253009 10.016276 -0.123155 47
-2.874141 9.917585 -0.936074 35
-3.266344 10.063096 0.038778 17
-3.842844 9.703578 -0.563410 47
-2.908099 10.041077 -0.463731 52
-2.913605 10.066425 -0.303705 33
-3.494048 9.716026 -0.896074 12
-2.913679 10.090790 -0.142992 34
-3.497475 9.745083 -0.738529 36
-2.553745 10.037475 -0.798765 40
-2.927801 10.145996 0.018431 24
-3.511417 9.789021 -0.581437 50
-2.582085 10.155896 -0.323824 15
-3.162300 9.786041 -1.071850 78
-3.171490 9.820032 -0.915542 49
-3.201551 9.918723 -0.442304 82
-3.213895 9.962602 -0.283260 22
-2.856059 9.928200 -0.776780 42
-2.876131 10.004203 -0.622081 47
-2.547378 10.075198 -0.641079 16
-3.504805 9.816549 -0.422293 24
-2.551738 10.099473 -0.482136 35
-3.219126 10.012818 -1.319354 19
-3.529138 9.889870 -0.263967 22
-3.169338 9.863558 -0.758990 100
-3.175781 9.889225 -0.600709 48
-2.828444 9.881404 -1.091170 101
-3.219568 10.031276 -0.123202 47
-2.837658 9.919799 -0.935352 36
-3.230325 10.070516 0.038763 18
-3.804912 9.705645 -0.562763 47
-2.871211 10.043374 -0.463377 55
-2.878855 10.076419 -0.303705 31
-3.459168 9.724270 -0.895728 16
-2.879534 10.104746 -0.143047 36
-3.462102 9.753472 -0.738245 36
-2.519662 10.050197 -0.799073 44
-2.894558 10.163849 0.018445 27
-3.473219 9.789927 -0.580767 54
-2.547590 10.168726 -0.323947 17
-3.126911 9.793230 -1.071435 79
-3.135981 9.827248 -0.915188 51
-3.159623 9.906993 -0.441287 94
-3.175456 9.962330 -0.282936 24
-2.824653 9.949619 -0.777679 42
-3.218096 10.101880 0.201719 24
-2.839013 10.006498 -0.621603 45
-2.512193 10.084029 -0.641079 17
-3.469187 9.824955 -0.422131 27
-2.518399 10.116074 -0.482506 38
-3.089231 9.725165 -1.280023 69
-3.497256 9.909670 -0.264168 26
-3.134889 9.874560 -0.758990 100
-3.142450 9.904058 -0.600940 55
-2.793934 9.891217 -1.091170 101
-3.182115 10.034828 -0.123109 46
-2.803015 9.929644 -0.935352 33
-3.191527 10.070291 0.038719 17
-3.769565 9.715143 -0.562548 36
-2.836136 10.053335 -0.463377 57
-2.843664 10.086407 -0.303705 29
-3.425203 9.736285 -0.895728 19
-2.843161 10.110886 -0.142992 33
-3.432000 9.776792 -0.739099 35
-2.485521 10.062802 -0.799380 14
-2.856898 10.166189 0.018431 18
-3.442991 9.813297 -0.581437 51
-2.513996 10.185320 -0.324194 15
-3.091510 9.800291 -1.071021 77
-3.502168 9.987250 -0.103445 41
-3.104054 9.845734 -0.915895 45
-3.128625 9.929397 -0.441795 84
-3.143064 9.980982 -0.283152 21
-2.785602 9.944056 -0.776480 40
-3.184015 10.116866 0.201795 34
-3.767160 9.766877 -0.403978 14
-2.805142 10.020193 -0.621842 48
-2.477930 10.096615 -0.641325 17
-3.436188 9.840777 -0.422293 25
-2.480217 10.113161 -0.481951 37
-3.056453 9.739676 -1.280521 101
-3.453420 9.895390 -0.263464 26
-3.095626 9.870217 -0.757821 100
-3.105470 9.907345 -0.600478 47
-2.761526 9.908573 -1.092015 100
-3.141089 10.026791 -0.122875 45
-2.772612 9.954718 -0.936797 32
-3.158746 10.089005 0.038748 15
-3.734198 9.724514 -0.562332 45
-2.801026 10.063174 -0.463377 56
-2.803081 10.077011 -0.303125 33
-3.397743 9.767001 -0.897457 19
-2.807925 10.120728 -0.142992 34
-3.390073 9.766071 -0.737391 35
-3.408761 9.825240 -0.581437 51
-2.466166 10.143525 -0.322588 3
-3.060850 9.822412 -1.072265 79
-3.452888 9.957839 -0.103015 25
-3.066103 9.845100 -0.914835 51
-3.097471 9.951716 -0.442304 79
-3.109326 9.995731 -0.283260 20
-2.755029 9.969123 -0.777679 42
-3.148586 10.127949 0.201795 41
-3.737228 9.791205 -0.404440 94
-2.773214 10.041504 -0.622558 52
-2.444338 10.113014 -0.641818 16
-3.400308 9.849005 -0.422131 27
-2.447477 10.133467 -0.482506 34
-3.018683 9.738984 -1.279027 101
-3.418625 9.907464 -0.263464 22
-3.062074 9.884854 -0.758113 100
-3.072942 9.925843 -0.600940 52
-3.108114 10.045435 -0.122968 45
-3.685264 9.694204 -0.719758 33
-2.738556 9.968272 -0.937158 32
-3.126704 10.111542 0.038792 15
-3.699893 9.737617 -0.562332 47
-2.768678 10.084555 -0.463909 54
-3.357408 9.756660 -1.055360 23
-2.769598 10.094557 -0.303357 35
-3.355458 9.756328 -0.895382 18
-2.770468 10.122752 -0.142884 33
-3.357258 9.781619 -0.737676 34
-3.373147 9.833302 -0.581214 49
-3.026545 9.833036 -1.072265 73
-3.418107 9.969831 -0.103015 23
-3.036404 9.870975 -0.916249 52
-3.060365 9.954828 -0.441965 89
-3.070892 9.995057 -0.282936 22
-2.718116 9.970983 -0.777080 42
-3.113213 10.138878 0.201795 41
-3.695966 9.785495 -0.403669 63
-2.737096 10.047271 -0.622319 51
-2.408098 10.117601 -0.641571 17
-3.363325 9.853250 -0.421808 26
-2.412090 10.141948 -0.482506 35
-2.986993 9.757052 -1.280023 101
-3.387894 9.930691 -0.263765 25
-3.028718 9.899298 -0.758406 100
-3.042946 9.951784 -0.601864 51
-3.074199 10.060048 -0.123015 47
-3.662642 9.736888 -0.721974 101
-2.703744 9.977771 -0.937158 33
-3.089052 10.114743 0.038763 15
-3.660257 9.735518 -0.561470 43
-2.732415 10.090301 -0.463731 56
-3.309233 9.726881 -1.050883 101
-2.738522 10.119601 -0.303821 27
-3.325231 9.779300 -0.896420 21
-2.741057 10.147328 -0.143101 30
-3.326085 9.796476 -0.737960 35
-3.337954 9.836869 -0.580767 50
-2.991605 9.835406 -1.071435 77
-3.387597 9.988687 -0.103093 25
-3.003654 9.880991 -0.916249 39
-3.029660 9.972569 -0.442304 98
-3.044700 10.028142 -0.283585 23
-2.688145 9.991496 -0.777979 40
-3.078413 10.145319 0.201719 33
-3.660696 9.790210 -0.403361 69
-2.703763 10.056292 -0.622319 49
-3.413761 10.093742 -1.280010 23
-2.375445 10.129418 -0.641818 15
-3.334468 9.875709 -0.422293 27
-2.378445 10.149891 -0.482506 36
-2.955770 9.770703 -1.280521 101
-3.348552 9.922927 -0.263263 25
-2.999337 9.920742 -0.759282 100
-3.002998 9.938885 -0.600478 48
-3.041978 10.074017 -0.123062 42
-3.613622 9.704106 -0.718650 101
-2.670641 9.986682 -0.937158 27
-3.056649 10.128760 0.038778 16
-3.626559 9.743860 -0.561254 48
-2.698939 10.099306 -0.463731 59
-3.285843 9.764201 -1.053732 101
-2.704949 10.128627 -0.303821 33
-3.295324 9.797827 -0.897112 19
-2.703485 10.149125 -0.142992 31
-3.290527 9.804269 -0.737676 39
-3.307362 9.859835 -0.581437 51
-2.960671 9.857225 -1.072679 74
-3.343791 9.973910 -0.102819 28
-2.970301 9.895228 -0.916602 43
-3.354957 10.012712 0.058978 3
-2.993721 9.979245 -0.442135 93
-3.004002 10.019539 -0.283044 21
-2.651300 9.993083 -0.777379 38
-3.043077 10.155974 0.201719 23
-3.622432 9.791648 -0.402898 62
-2.669791 10.069495 -0.622558 46
-3.363520 10.060357 -1.274285 16
-3.295118 9.872055 -0.421646 24
-2.344137 10.161970 -0.482691 35
-2.927556 9.799907 -1.283010 100
-3.315392 9.938271 -0.263363 26
-2.964950 9.931073 -0.759282 100
-2.974284 9.968353 -0.601633 47
-3.009402 10.092143 -0.123155 40
-3.584175 9.727779 -0.719481 101
-2.639159 10.007407 -0.938241 25
-3.019342 10.131597 0.038748 16
-3.598385 9.771327 -0.562117 46
-2.665067 10.112430 -0.463909 53
-3.249594 9.767938 -1.052918 101
-2.669986 10.137899 -0.303821 35
-3.256469 9.794012 -0.895728 23
-2.674138 10.181710 -0.143319 11
-3.253771 9.808122 -0.737106 41
-3.271667 9.867529 -0.581214 51
-2.922851 9.856057 -1.071435 75
-3.313988 10.000709 -0.102976 25
-2.934610 9.901716 -0.916249 46
-3.333819 10.066130 0.059224 38
-2.957734 9.985803 -0.441965 89
-2.973549 10.045300 -0.283477 21
-2.618421 10.009995 -0.777979 42
-3.592351 9.815494 -0.403361 62
-2.636645 10.086479 -0.623035 50
-3.315921 10.034328 -1.269515 26
-3.613039 9.877081 -0.244178 58
-3.263142 9.891088 -0.421970 24
-2.308651 10.170091 -0.482691 11
-3.280681 9.949782 -0.263363 21
-2.929138 9.937536 -0.758990 100
-2.939470 9.978675 -0.601633 55
-2.974156 10.102587 -0.123155 43
-3.555663 9.755228 -0.720589 101
-2.986216 10.149750 0.038778 17
-3.564254 9.783829 -0.562117 42
-2.630757 10.125539 -0.464086 55
-3.206777 9.752761 -1.050069 101
-2.637596 10.158768 -0.304168 32
-3.221018 9.801534 -0.895382 22
-3.221229 9.818857 -0.737106 36
-3.237683 9.874529 -0.580990 53
-2.890151 9.865696 -1.071435 75
-3.283298 10.019245 -0.103054 26
-2.899519 9.903746 -0.915542 49
-3.310380 10.107539 0.059402 31
-2.923481 9.991720 -0.441795 94
-2.936855 10.043591 -0.283152 21
-3.524137 9.723923 -0.877602 21
-2.587205 10.026347 -0.778579 41
-3.555698 9.816078 -0.402898 57
-2.602185 10.091301 -0.622796 47
-3.266591 9.996194 -1.263313 14
-3.572098 9.866447 -0.243620 49
-3.226605 9.890455 -0.421484 25
-3.250148 9.968210 -0.263564 23
-2.893938 9.939534 -0.758406 100
-2.907479 9.992202 -0.601864 46
-2.941755 10.116235 -0.123202 47
-3.524648 9.770720 -0.720866 101
-2.950309 10.151914 0.038748 16
-3.527726 9.784322 -0.561470 39
