# This PCD file was generated using the MATLAB® pcwrite function
# from Computer Vision Toolbox®.
# .PCD v.7 - Point Cloud Data file format
VERSION .7
FIELDS x y z intensity
SIZE 4 4 4 1
TYPE F F F U
COUNT 1 1 1 1
WIDTH 1522
HEIGHT 1
VIEWPOINT 0 0 0 1 0 0 0
POINTS 1522
DATA ascii
0.674807 7.243269 -0.140950 101
0.205049 6.968283 -0.537636 101
0.878759 7.017111 -0.477155 101
0.211571 7.149456 -0.221030 58
0.890178 7.098716 -0.372437 101
0.419073 6.801961 -0.749960 41
0.916970 7.302524 -0.043675 100
0.433704 7.020398 -0.447458 95
0.931135 7.405358 0.070345 101
0.439940 7.102123 -0.343038 86
0.645769 6.869685 -0.665607 101
0.654149 6.946424 -0.565046 95
0.864345 6.828268 -0.677286 101
0.691057 7.299301 -0.029432 101
0.217197 7.023285 -0.433461 101
0.876713 6.916732 -0.578109 63
0.702052 7.402304 0.084357 38
0.219789 7.069013 -0.327342 100
0.907967 7.153764 -0.264421 101
0.435203 6.895480 -0.653112 101
0.919646 7.236141 -0.155342 96
0.441214 6.972258 -0.552280 100
0.950055 7.465479 0.186552 101
0.670040 7.027456 -1.288753 45
0.454148 7.157744 -0.235418 76
0.651607 6.822110 -0.767494 97
0.459578 7.224294 -0.126355 53
0.671384 7.016829 -0.462008 80
0.678105 7.074651 -0.356298 98
0.900031 7.007434 -1.468492 40
0.690142 7.150437 -0.249604 101
0.872465 6.783875 -0.779291 101
0.700472 7.244850 -0.141028 101
0.228847 6.951581 -0.536406 101
0.903758 7.017959 -0.477425 101
0.236791 7.156666 -0.221277 77
0.913930 7.087642 -0.372022 101
0.442297 6.792521 -0.749085 41
0.943480 7.307213 -0.043722 100
0.457167 7.002907 -0.446442 99
0.958005 7.409997 0.070421 101
0.463162 7.076623 -0.341882 99
0.670518 6.875315 -0.666375 101
0.677618 6.936162 -0.564400 95
0.889202 6.833105 -0.678069 101
0.717705 7.308787 -0.029481 101
0.242124 7.034454 -0.434200 100
0.903942 6.937347 -0.580093 56
0.731019 7.431653 0.084720 101
0.244325 7.064209 -0.327157 100
0.933967 7.158478 -0.264714 101
0.459271 6.893919 -0.653112 101
0.945935 7.240818 -0.155512 100
0.464752 6.958739 -0.551334 93
0.979221 7.485907 0.187147 101
0.695728 7.036822 -1.290908 37
0.480199 7.172071 -0.235943 79
0.673066 6.796059 -0.764823 101
0.484792 7.222646 -0.126355 58
0.697449 7.030330 -0.463054 69
0.705166 7.096093 -0.357500 98
0.926846 7.031590 -1.474191 54
0.713056 7.140153 -0.249326 101
0.897037 6.796705 -0.781102 101
0.726085 7.258405 -0.141338 100
0.251320 6.934841 -0.535176 100
0.927548 7.018880 -0.477694 101
0.261249 7.175818 -0.221895 59
0.937953 7.088532 -0.372230 101
0.465363 6.798951 -0.749960 44
0.967706 7.304044 -0.043722 100
0.480660 7.005335 -0.446696 100
0.980994 7.394884 0.070308 101
0.488546 7.102950 -0.343231 93
0.693314 6.873053 -0.666375 101
0.700615 6.933877 -0.564400 97
0.912910 6.838010 -0.678853 101
0.741938 7.306367 -0.029481 101
0.264395 7.005686 -0.432476 101
0.925357 6.922458 -0.579101 54
0.754849 7.421229 0.084629 100
0.267900 7.067353 -0.327342 100
0.957700 7.155342 -0.264714 101
0.482685 6.900303 -0.653865 101
0.971535 7.249532 -0.155768 98
0.488104 6.961138 -0.551650 96
1.004040 7.482619 0.187147 101
0.716258 7.007074 -1.285879 67
0.503139 7.158475 -0.235549 62
0.698433 6.821471 -0.767939 100
0.509865 7.236956 -0.126635 67
0.720352 7.024008 -0.462793 71
0.049172 7.104843 -0.315181 43
0.727469 7.081793 -0.356899 100
0.957872 7.066954 -1.482331 44
0.742927 7.173279 -0.250576 101
0.273800 6.889071 -0.638371 97
0.923011 6.801249 -0.782008 101
0.753922 7.267629 -0.141570 100
0.278009 6.965754 -0.537636 97
0.953804 7.019388 -0.477963 101
0.287708 7.178807 -0.222019 57
0.962850 7.077131 -0.371814 101
0.490279 6.797200 -0.749960 49
0.993930 7.296484 -0.043699 99
0.506621 7.007508 -0.446950 95
1.009712 7.403128 0.070421 101
0.513999 7.093142 -0.342845 92
0.719328 6.878386 -0.667143 101
0.532003 7.324689 -0.015381 27
0.726024 6.931263 -0.564400 88
0.064120 7.055121 -0.421640 2
0.937426 6.830674 -0.678461 101
0.769130 7.307576 -0.029497 101
0.290236 7.008659 -0.432722 101
0.954522 6.946664 -0.581415 46
0.780367 7.402502 0.084448 100
0.294466 7.082293 -0.328082 100
0.984464 7.155744 -0.264861 101
0.508850 6.910402 -0.654994 101
0.997008 7.237999 -0.155598 93
0.514789 6.975209 -0.552911 100
1.034190 7.498695 0.187643 100
0.741521 7.000489 -1.285161 73
0.529962 7.164557 -0.235812 66
0.721753 6.803053 -0.766158 101
0.537569 7.250993 -0.126914 65
0.746935 7.029259 -0.463316 66
0.075466 7.128590 -0.316245 68
0.754266 7.087025 -0.357300 100
0.985772 7.086841 -1.487215 41
0.766259 7.154742 -0.250021 101
0.296641 6.860218 -0.635789 101
0.944553 6.782240 -0.780197 101
0.778433 7.256999 -0.141415 101
0.302322 6.964741 -0.537636 92
0.975545 6.996253 -0.476617 101
0.312243 7.165776 -0.221648 58
0.989757 7.089551 -0.372645 101
0.515502 6.815270 -0.752147 53
1.021609 7.308816 -0.043794 93
0.530475 6.997736 -0.446442 90
1.034994 7.395597 0.070383 101
0.539058 7.095288 -0.343038 86
0.744190 6.883750 -0.667912 101
0.556657 7.310822 -0.015356 65
0.751931 6.944541 -0.565692 97
0.089199 7.090787 -0.423788 60
0.964038 6.847070 -0.680420 101
0.796364 7.320753 -0.029561 101
0.315594 7.027545 -0.433953 100
0.977095 6.931448 -0.580423 49
0.807935 7.415637 0.084629 100
0.318826 7.073238 -0.327712 101
1.009436 7.152263 -0.264861 101
0.532969 6.908584 -0.654994 101
1.026743 7.266153 -0.156279 85
0.538827 6.969394 -0.552595 100
0.765097 6.990035 -1.283724 52
0.555586 7.170635 -0.236074 57
0.746795 6.812346 -0.767494 101
0.562567 7.245085 -0.126844 67
0.770160 7.014706 -0.462531 71
0.100518 7.140270 -0.316777 74
0.779436 7.088319 -0.357500 100
1.014862 7.114382 -1.493727 36
0.792041 7.159978 -0.250298 101
0.320707 6.863122 -0.636158 101
0.970430 6.794644 -0.782008 101
0.803277 7.250268 -0.141338 101
0.326778 6.967628 -0.537944 83
1.001640 7.004659 -0.477425 101
0.337426 7.168637 -0.221772 54
1.015074 7.090006 -0.372853 101
0.540867 6.833247 -0.754335 54
1.050556 7.328958 -0.043936 87
0.555880 7.007777 -0.447204 92
1.060297 7.387971 0.070345 101
0.564199 7.097342 -0.343231 77
0.766088 6.861316 -0.665991 100
0.579084 7.268954 -0.015272 48
0.776276 6.941862 -0.565692 99
0.113804 7.074461 -0.422833 73
0.988683 6.847577 -0.680811 101
0.821660 7.313932 -0.029545 101
0.340502 7.030379 -0.434200 100
1.004914 6.951637 -0.582406 49
0.835826 7.428646 0.084811 100
0.343726 7.072072 -0.327712 101
1.036927 7.164486 -0.265447 101
0.556352 6.894754 -0.653865 101
1.049503 7.242697 -0.155853 91
0.561803 6.947577 -0.551019 82
0.788893 6.979469 -1.282287 50
0.580582 7.164644 -0.235943 62
0.771319 6.813614 -0.767939 100
0.589146 7.255010 -0.127054 65
0.794977 7.011937 -0.462531 64
0.125713 7.135874 -0.316600 76
0.804088 7.081545 -0.357300 100
0.819297 7.177029 -0.250993 101
0.345062 6.869917 -0.636895 101
0.995293 6.799080 -0.782913 101
0.828580 7.247420 -0.141338 100
0.350696 6.958479 -0.537329 100
1.026085 7.001120 -0.477425 101
0.363053 7.179395 -0.222142 54
1.039237 7.082468 -0.372645 101
0.564061 6.823392 -0.753460 60
0.367444 7.241809 -0.112644 24
1.075551 7.321288 -0.043912 90
0.580338 7.005794 -0.447204 92
1.087244 7.392139 0.070421 101
0.587647 7.079402 -0.342460 83
0.791857 6.874422 -0.667527 101
0.605449 7.278847 -0.015297 44
0.800503 6.939110 -0.565692 97
0.138341 7.066037 -0.422356 60
1.013745 6.851960 -0.681595 101
0.847646 7.314993 -0.029561 101
0.364626 7.021174 -0.433707 101
1.026837 6.932313 -0.581084 54
0.858986 7.401845 0.084538 100
0.368202 7.066839 -0.327527 100
1.062515 7.164777 -0.265594 101
0.581084 6.900707 -0.654617 101
1.075953 7.246901 -0.156023 90
0.588398 6.973387 -0.553226 100
0.816895 7.007941 -1.288034 62
0.606935 7.178508 -0.236468 66
0.795559 6.814828 -0.768384 100
0.614129 7.248924 -0.126984 67
0.822693 7.036870 -0.464362 64
0.149947 7.103430 -0.315181 76
0.829267 7.082663 -0.357500 95
0.362876 6.830514 -0.739454 44
0.839826 7.146481 -0.250021 101
0.366563 6.844872 -0.634683 101
1.019011 6.803604 -0.783819 101
0.854946 7.264492 -0.141725 100
0.374411 6.969225 -0.538251 100
1.051663 7.013466 -0.478502 101
0.613485 7.147331 -1.167526 1
0.386214 7.166174 -0.221772 58
1.064497 7.090833 -0.373269 101
0.586344 6.817523 -0.753022 60
0.392320 7.256526 -0.112892 74
1.101607 7.329548 -0.043983 87
0.603910 7.007808 -0.447458 92
1.114727 7.408270 0.070609 101
0.612495 7.093337 -0.343231 88
0.816055 6.883619 -0.668680 101
0.632686 7.312665 -0.015373 54
0.158321 6.966531 -0.523951 8
0.823510 6.936418 -0.565692 92
0.161590 7.057556 -0.421879 51
1.037652 6.856432 -0.682378 101
0.872846 7.320085 -0.029593 101
0.387467 7.011953 -0.433215 100
1.051014 6.936753 -0.581745 47
0.887320 7.430727 0.084901 100
0.392077 7.073558 -0.327897 100
1.088067 7.173070 -0.266033 101
0.603964 6.898742 -0.654617 101
1.098778 7.235385 -0.155853 77
0.611171 6.967425 -0.552911 100
0.837787 6.985659 -1.284443 45
0.629336 7.160526 -0.235943 66
0.816732 6.800313 -0.767048 101
0.638515 7.250832 -0.127054 68
0.844594 7.022215 -0.463577 64
0.173404 7.098899 -0.315004 73
0.853227 7.083840 -0.357700 92
0.385525 6.829274 -0.739454 83
0.868452 7.163193 -0.250715 101
0.392136 6.851433 -0.635420 101
1.043961 6.799820 -0.783819 101
0.883515 7.277187 -0.142035 101
0.400201 6.971786 -0.538559 99
1.079794 7.025342 -0.479579 101
0.910650 7.490154 0.201534 100
0.635461 7.097846 -1.159815 16
0.412484 7.164711 -0.221772 54
1.090474 7.086885 -0.373269 101
0.611323 6.815328 -0.753022 57
0.418679 7.251046 -0.112830 99
1.129664 7.333370 -0.044031 100
0.629216 7.001574 -0.447204 85
1.140012 7.392280 0.070496 100
0.637385 7.079109 -0.342653 86
0.838822 6.860827 -0.666759 101
0.659440 7.310301 -0.015373 51
0.184022 6.973880 -0.524551 101
0.848874 6.933359 -0.565692 95
0.187189 7.048934 -0.421402 56
1.062075 6.848663 -0.681987 101
0.899574 7.316849 -0.029593 101
0.414246 7.030419 -0.434446 100
1.078163 6.944688 -0.582737 51
0.912484 7.411560 0.084720 100
0.417659 7.068091 -0.327712 98
1.113003 7.161153 -0.265740 101
0.629130 6.896492 -0.654617 101
1.125771 7.235281 -0.155938 90
0.636575 6.965150 -0.552911 94
0.865175 6.998179 -1.287316 43
0.655796 7.162166 -0.236074 62
0.842478 6.805182 -0.767939 101
0.664927 7.248457 -0.127054 68
0.873596 7.046821 -0.465409 66
0.199701 7.114199 -0.315713 79
0.881465 7.100511 -0.358702 100
0.409901 6.819886 -0.738594 80
0.203494 7.206100 -0.208920 3
0.894441 7.168051 -0.250993 101
0.416049 6.850022 -0.635420 101
1.066457 6.788282 -0.782913 101
0.907920 7.266122 -0.141880 100
0.424292 6.966366 -0.538251 101
1.102451 7.009702 -0.478771 101
0.939272 7.506768 0.202068 101
0.657673 7.068067 -1.155317 24
0.437491 7.163227 -0.221772 59
1.115205 7.083035 -0.373269 101
0.635478 6.817111 -0.753460 58
0.442520 7.225588 -0.112458 88
1.155255 7.329382 -0.044031 92
0.654395 7.007284 -0.447712 82
0.662092 7.076841 -0.342653 91
0.866741 6.889460 -0.669832 101
0.686447 7.323885 -0.015406 70
0.207649 6.949273 -0.522752 101
0.873070 6.930354 -0.565692 100
0.212273 7.064202 -0.422356 58
1.087847 6.856709 -0.683162 101
0.925611 7.317632 -0.029609 101
0.438785 7.028930 -0.434446 101
1.100522 6.929071 -0.581745 51
0.939354 7.416265 0.084811 100
0.442079 7.062602 -0.327527 100
1.137993 7.157224 -0.265740 101
0.653575 6.898219 -0.654994 101
1.155420 7.258954 -0.156534 87
0.660884 6.962886 -0.552911 96
0.893570 7.026345 -1.293063 40
0.681171 7.163813 -0.236205 61
0.868236 6.817973 -0.769720 100
0.691362 7.258036 -0.127263 65
0.895159 7.019972 -0.463839 75
0.224533 7.113458 -0.315713 80
0.908269 7.113242 -0.359503 100
0.433452 6.814445 -0.738164 73
0.228647 7.205347 -0.208920 62
0.919731 7.176941 -0.251410 101
0.439017 6.852580 -0.635789 101
1.089591 6.788632 -0.783366 101
0.931502 7.259104 -0.141803 101
0.446624 6.952981 -0.537329 101
1.126956 7.013888 -0.479310 101
0.966199 7.519475 0.202496 100
0.681865 7.073707 -1.156602 29
0.462014 7.173706 -0.222142 61
1.141225 7.095074 -0.374101 101
0.659228 6.826839 -0.754773 69
0.466994 7.232064 -0.112582 84
1.179554 7.325511 -0.044031 100
0.677244 7.001102 -0.447458 92
0.686712 7.086537 -0.343231 97
0.888563 6.878651 -0.669064 101
0.711890 7.333512 -0.015431 80
0.230296 6.936587 -0.521852 101
0.898605 6.947191 -0.567306 98
0.721192 7.416361 0.098844 6
0.236230 7.079422 -0.423311 52
1.111852 6.860923 -0.683945 101
0.951417 7.326423 -0.029657 101
0.461043 7.011501 -0.433461 101
1.126685 6.945058 -0.583398 49
0.965490 7.425009 0.084947 100
0.467074 7.085020 -0.328636 100
1.160440 7.145520 -0.265447 101
0.676447 6.896014 -0.654994 101
1.180769 7.262977 -0.156705 82
0.683580 6.956687 -0.552595 91
0.918393 7.035048 -1.295218 36
0.705707 7.169472 -0.236468 62
0.890840 6.815056 -0.769720 100
0.714642 7.247743 -0.127123 63
0.922060 7.044669 -0.465670 70
0.248400 7.120662 -0.316068 92
0.930814 7.102268 -0.359102 100
0.456047 6.812970 -0.738164 71
0.251279 7.168586 -0.207877 96
0.942724 7.157829 -0.250854 101
0.462430 6.843056 -0.635052 101
1.115232 6.796550 -0.784725 101
0.957379 7.259771 -0.141880 101
0.471721 6.963315 -0.538251 100
1.152087 7.013849 -0.479579 101
0.991402 7.508128 0.202282 100
0.686934 6.874858 -1.124474 13
0.487331 7.176038 -0.222266 53
1.162091 7.067398 -0.372853 101
0.683445 6.828454 -0.755210 68
0.492774 7.238370 -0.112706 85
1.206399 7.329246 -0.044078 100
0.700864 6.990753 -0.446950 77
0.712212 7.092051 -0.343616 77
0.911479 6.867619 -0.668296 101
0.736239 7.319047 -0.015406 79
0.254027 6.923784 -0.520952 101
0.922795 6.944019 -0.567306 87
0.747017 7.413805 0.098844 40
0.259855 7.050625 -0.421640 59
1.132451 6.837379 -0.681987 101
0.976888 7.323070 -0.029657 101
0.486525 7.025787 -0.434446 100
1.154077 6.960763 -0.585051 49
0.991290 7.421608 0.084947 100
0.490866 7.071395 -0.328082 101
1.188527 7.161162 -0.266180 101
0.701203 6.901546 -0.655747 101
1.207289 7.266723 -0.156875 84
0.708941 6.966173 -0.553541 98
0.042508 7.020140 -0.406016 4
0.945938 7.055220 -1.299528 38
0.730176 7.163002 -0.236337 61
0.915530 6.819805 -0.770610 100
0.740588 7.253179 -0.127263 63
0.263908 6.910603 -0.626939 45
0.944880 7.029562 -0.464885 61
0.273082 7.119758 -0.316068 77
0.952752 7.079204 -0.358101 100
0.479370 6.807382 -0.737734 76
0.275961 7.163677 -0.207761 57
0.970382 7.174303 -0.251548 101
0.486878 6.849346 -0.635789 101
1.138949 6.792615 -0.784725 101
0.984325 7.268274 -0.142113 101
0.495741 6.957649 -0.537944 100
1.177884 7.017656 -0.480117 101
1.014918 7.484809 0.201748 92
0.683709 6.609303 -1.081423 34
0.512662 7.178281 -0.222389 57
1.193372 7.102692 -0.374933 101
0.706457 6.818117 -0.754335 74
0.518609 7.244585 -0.112830 89
1.232639 7.328935 -0.044102 59
0.727323 7.008117 -0.448220 86
0.057281 7.117363 -0.302049 3
0.737377 7.093495 -0.343809 80
0.939209 6.892011 -0.670984 101
0.762197 7.320411 -0.015415 66
0.279635 6.958724 -0.523651 101
0.945411 6.928905 -0.566337 87
0.772476 7.407174 0.098791 41
0.284143 7.041696 -0.421163 61
1.158303 6.845159 -0.683162 101
1.002987 7.323578 -0.029673 101
0.510757 7.020064 -0.434200 100
1.173707 6.929180 -0.582737 54
1.017734 7.422066 0.084992 100
0.516709 7.085579 -0.328821 101
1.212849 7.153029 -0.266033 101
0.724041 6.887175 -0.654617 101
1.232648 7.262465 -0.156875 80
0.733253 6.963656 -0.553541 100
0.067470 7.067867 -0.408787 86
0.972169 7.063570 -1.301683 43
0.756853 7.176313 -0.236861 63
0.939872 6.820506 -0.771055 100
0.766322 7.254526 -0.127333 64
0.288361 6.917600 -0.627661 101
0.968866 7.022267 -0.464624 61
0.297432 7.106783 -0.315536 85
0.980190 7.095623 -0.359102 92
0.504888 6.829463 -0.740314 83
0.301301 7.170660 -0.207993 57
0.994320 7.162952 -0.251271 101
0.511377 6.855548 -0.636527 101
1.164666 6.800350 -0.786083 101
1.011341 7.276677 -0.142345 100
0.520322 6.959853 -0.538251 100
1.202373 7.013502 -0.480117 101
0.708036 6.618653 -1.083351 44
0.537417 7.172461 -0.222266 59
1.216807 7.090609 -0.374517 101
0.730676 6.819562 -0.754773 70
0.544194 7.246719 -0.112892 86
0.751355 7.001566 -0.447966 98
0.081941 7.101136 -0.301371 64
0.761706 7.086905 -0.343616 85
0.959953 6.865031 -0.668680 101
0.787317 7.313729 -0.015406 69
0.303228 6.941766 -0.522452 101
0.970697 6.933459 -0.566983 90
0.798327 7.404432 0.098791 42
0.309596 7.060606 -0.422356 70
1.184224 6.852842 -0.684337 101
1.029102 7.323994 -0.029689 101
0.536473 7.034162 -0.435185 100
1.201964 6.948608 -0.584720 50
1.044750 7.426389 0.085083 100
0.541135 7.079748 -0.328636 100
1.238492 7.152690 -0.266180 101
0.749798 6.900441 -0.656123 101
0.559391 7.302606 -0.001278 74
1.255942 7.246297 -0.156620 89
0.757987 6.965018 -0.553856 100
0.092193 7.071581 -0.409018 100
1.000670 7.087407 -1.306712 46
0.782331 7.177602 -0.236993 61
0.964787 6.825056 -0.771945 100
0.793810 7.271686 -0.127682 63
0.311427 6.892674 -0.625494 101
0.996728 7.042555 -0.466193 69
0.323324 7.129654 -0.316600 71
1.005513 7.096113 -0.359302 100
0.529032 6.831624 -0.740744 67
0.327420 7.193529 -0.208688 76
1.018739 7.155482 -0.251132 101
0.534979 6.849752 -0.636158 101
1.186334 6.784500 -0.784725 101
1.035597 7.265185 -0.142190 101
0.544293 6.954019 -0.537944 101
1.230284 7.028919 -0.481464 101
0.730264 6.608294 -1.082066 46
0.563072 7.178514 -0.222513 53
1.242242 7.090252 -0.374725 101
0.754478 6.816970 -0.754773 80
0.568861 7.236800 -0.112768 91
0.776678 7.006835 -0.448474 83
0.107396 7.144762 -0.303236 82
0.788216 7.100086 -0.344386 76
0.984494 6.865577 -0.669064 101
0.813745 7.318885 -0.015423 63
0.327288 6.936680 -0.522152 101
0.996618 6.941864 -0.567952 98
0.824195 7.401597 0.098791 36
0.334076 7.055493 -0.422118 64
1.208178 6.848660 -0.684337 101
1.055274 7.324310 -0.029705 101
0.559795 7.016324 -0.434200 100
1.227644 6.952214 -0.585381 46
1.072429 7.434566 0.085219 100
0.565573 7.073830 -0.328452 100
1.264201 7.152251 -0.266326 101
0.773487 6.893819 -0.655747 101
0.586211 7.316554 -0.001281 100
1.284075 7.257610 -0.156960 82
0.783243 6.970249 -0.554487 100
0.116737 7.059237 -0.408325 91
0.808787 7.186738 -0.237386 60
0.987532 6.813768 -0.771055 100
0.819260 7.268863 -0.127682 68
0.336328 6.907457 -0.626939 101
1.021953 7.042972 -0.466455 63
0.347699 7.116504 -0.316068 79
1.029784 7.088595 -0.359102 101
0.551670 6.813874 -0.739024 76
0.351435 7.168377 -0.207993 76
1.046019 7.167706 -0.251687 101
0.559210 6.851812 -0.636527 101
1.211405 6.788143 -0.785630 101
1.059217 7.249655 -0.141958 101
0.569214 6.960026 -0.538559 101
1.254110 7.020653 -0.481194 101
0.752432 6.597859 -1.080781 52
0.588453 7.180489 -0.222636 49
1.269093 7.097670 -0.375349 101
0.777818 6.810345 -0.754335 86
0.596083 7.258687 -0.113141 80
0.800678 7.000115 -0.448220 83
0.131447 7.096395 -0.301201 60
0.812541 7.093322 -0.344194 80
1.010769 6.877856 -0.670600 101
0.840656 7.327922 -0.015448 56
0.351903 6.943463 -0.522752 101
1.020843 6.938343 -0.567952 98
0.849569 7.394702 0.098738 38
0.359108 7.062260 -0.422595 58
1.233487 6.852236 -0.685120 101
1.082587 7.332453 -0.029754 101
0.584946 7.022285 -0.434692 100
1.255439 6.967502 -0.587034 49
1.098958 7.434734 0.085264 91
0.591259 7.083758 -0.329006 100
1.291997 7.163529 -0.266913 101
0.797547 6.891077 -0.655747 101
0.612747 7.326421 -0.001283 100
1.308691 7.249148 -0.156875 80
0.808028 6.971434 -0.554802 95
0.141218 7.050801 -0.407863 80
0.832025 7.167986 -0.236861 59
0.355640 6.836287 -0.726743 27
1.012478 6.818144 -0.771945 100
0.844166 7.261986 -0.127612 68
0.361891 6.934089 -0.629467 101
1.047119 7.043310 -0.466717 72
0.372956 7.123228 -0.316422 66
1.058638 7.112617 -0.360504 100
0.576790 6.827758 -0.740744 76
0.377085 7.179085 -0.208341 76
1.069851 7.156103 -0.251410 101
0.582111 6.837913 -0.635420 101
0.385684 7.253080 -0.098886 11
1.236517 6.791693 -0.786536 101
1.089844 7.281510 -0.142655 101
0.593505 6.957997 -0.538559 101
1.280040 7.024085 -0.481733 101
0.774998 6.591271 -1.080138 52
0.611811 7.158473 -0.222019 55
1.293144 7.089267 -0.375141 101
0.802516 6.815485 -0.755210 82
0.620052 7.240623 -0.112892 84
0.826043 7.005207 -0.448728 88
0.155602 7.067924 -0.300014 60
0.838233 7.098378 -0.344579 86
1.034178 6.870348 -0.670216 101
0.866700 7.328915 -0.015457 56
0.376138 6.942193 -0.522752 101
1.045056 6.934738 -0.567952 98
0.876317 7.399635 0.098844 37
0.384624 7.076911 -0.423549 65
1.257398 6.847888 -0.685120 101
1.108773 7.332584 -0.029770 101
0.609109 7.016222 -0.434446 100
1.279753 6.963077 -0.587034 49
1.124904 7.430853 0.085264 52
0.616675 7.089612 -0.329376 100
1.319164 7.170770 -0.267352 101
0.823483 6.904068 -0.657252 101
0.642485 7.372056 -0.001292 100
0.163273 6.991353 -0.512326 44
1.335435 7.252401 -0.157045 39
0.832358 6.968571 -0.554802 100
0.166017 7.058250 -0.408325 72
0.858940 7.180917 -0.237386 60
0.380383 6.850890 -0.728432 58
1.037467 6.822428 -0.772836 88
0.870461 7.266937 -0.127752 63
0.385429 6.920851 -0.628383 101
1.074101 7.055396 -0.467763 65
0.583073 6.639005 -0.978432 44
0.397150 7.109913 -0.315890 64
1.081052 7.093081 -0.359703 100
0.599574 6.813818 -0.739454 73
0.402142 7.177725 -0.208341 79
1.099644 7.183940 -0.252521 101
0.607716 6.855678 -0.637264 101
0.411207 7.255683 -0.098940 86
1.259480 6.783430 -0.786083 101
1.114031 7.269757 -0.142500 100
0.616720 6.943966 -0.537636 101
1.306734 7.031346 -0.482541 101
0.799421 6.600285 -1.082066 63
0.639626 7.188153 -0.223007 49
1.320076 7.096491 -0.375765 101
0.826783 6.816589 -0.755648 91
0.646036 7.246381 -0.113017 84
0.850982 7.006242 -0.448982 83
0.180690 7.083318 -0.300692 69
0.863505 7.099372 -0.344772 82
1.059996 6.878498 -0.671368 100
0.891335 7.317901 -0.015440 49
0.400392 6.940836 -0.522752 101
1.072327 6.950744 -0.569566 95
0.904111 7.412408 0.099056 38
0.409356 7.075523 -0.423549 62
1.282810 6.851274 -0.685904 101
1.135640 7.336566 -0.029802 101
0.633649 7.014049 -0.434446 100
1.306312 6.970311 -0.588026 47
0.641838 7.091390 -0.329561 100
1.346466 7.177896 -0.267792 101
0.846186 6.889286 -0.656123 101
0.667561 7.361795 -0.001290 100
0.188171 7.006690 -0.513495 93
0.856751 6.965614 -0.554802 100
0.190511 7.049642 -0.407863 78
0.884083 7.177865 -0.237386 56
0.403201 6.829662 -0.726321 47
1.063806 6.834463 -0.774617 100
0.896403 7.267813 -0.127821 63
0.409906 6.923435 -0.628744 101
1.097588 7.043701 -0.467240 71
0.928271 7.515789 0.216821 20
0.609934 6.676333 -0.984242 100
0.423483 7.132412 -0.316954 69
1.107754 7.101090 -0.360304 100
0.625266 6.831476 -0.741604 72
0.427536 7.180263 -0.208457 74
1.127188 7.195856 -0.253076 101
0.632740 6.865413 -0.638371 101
0.437252 7.266181 -0.099104 87
1.284629 6.786802 -0.786989 101
1.144357 7.297431 -0.143120 100
0.642055 6.953685 -0.538559 101
1.332756 7.034584 -0.483079 101
0.822455 6.597454 -1.082066 46
0.663977 7.177915 -0.222760 55
1.347072 7.103614 -0.376389 101
0.850572 6.813662 -0.755648 82
0.671695 7.248065 -0.113079 96
0.876423 7.011151 -0.449490 94
0.206457 7.118597 -0.302219 73
0.888778 7.100279 -0.344964 86
1.084000 6.874756 -0.671368 101
0.919858 7.338558 -0.015490 48
0.424861 6.943377 -0.523052 101
1.094718 6.935144 -0.568597 93
0.928984 7.401270 0.098950 43
0.432584 7.050139 -0.422118 61
1.308210 6.854574 -0.686687 101
1.160617 7.328607 -0.029786 101
0.658128 7.011794 -0.434446 100
1.331383 6.969624 -0.588356 48
0.666214 7.085128 -0.329376 89
1.369261 7.161373 -0.267352 101
0.871228 6.894191 -0.656876 101
0.694005 7.367384 -0.001292 100
0.212023 6.986053 -0.512033 88
0.881561 6.966537 -0.555117 100
0.215484 7.060908 -0.408556 72
0.910138 7.182667 -0.237649 53
0.427287 6.832183 -0.726743 44
1.084531 6.811080 -0.772391 100
0.921263 7.260672 -0.127752 60
0.433323 6.910035 -0.627661 101
1.125310 7.059535 -0.468548 67
0.952485 7.496636 0.216363 44
0.633982 6.682043 -0.985405 101
0.447876 7.122914 -0.316600 62
1.133794 7.105070 -0.360704 100
0.649485 6.833211 -0.742034 90
0.452597 7.178727 -0.208457 78
1.151044 7.192079 -0.253076 101
0.654367 6.851383 -0.637264 101
0.460585 7.252717 -0.098940 93
1.306376 6.778602 -0.786536 84
1.166019 7.277801 -0.142810 100
0.665870 6.959458 -0.539174 100
1.353809 7.018370 -0.482272 101
0.895971 6.998047 -1.148249 19
0.688157 7.179653 -0.222884 51
1.370621 7.099108 -0.376389 101
0.874679 6.822635 -0.756960 98
0.696109 7.249778 -0.113141 80
0.901701 7.024044 -0.450506 90
0.230449 7.129856 -0.302727 83
0.912828 7.101256 -0.345157 89
0.233200 7.177584 -0.194322 18
1.109324 6.886847 -0.672904 101
0.943678 7.331500 -0.015482 56
0.447884 6.941930 -0.523052 101
1.120883 6.951157 -0.570212 98
0.955056 7.410049 0.099109 39
0.456219 7.052650 -0.422356 68
1.330934 6.850199 -0.686687 101
1.185552 7.328667 -0.029802 101
0.681377 7.009573 -0.434446 100
1.350683 6.945605 -0.586703 41
0.688931 7.074926 -0.329006 100
1.394529 7.164640 -0.267646 101
0.895109 6.899163 -0.657629 101
0.718432 7.365043 -0.001292 100
0.234383 6.961389 -0.510280 83
0.905685 6.971484 -0.555748 95
0.238222 7.040200 -0.407401 85
0.934983 7.187539 -0.237911 62
0.449157 6.818821 -0.725476 43
1.109026 6.819217 -0.773726 88
0.945852 7.261543 -0.127821 69
0.456498 6.912535 -0.628022 101
1.146149 7.040006 -0.467502 63
0.980442 7.517225 0.217050 38
0.648400 6.601131 -0.973784 81
0.471758 7.125377 -0.316777 68
1.157992 7.105214 -0.360905 100
0.672531 6.834977 -0.742464 96
0.476665 7.181176 -0.208573 89
1.173594 7.172231 -0.252521 100
0.677918 6.845090 -0.636895 101
0.485131 7.239090 -0.098777 71
1.194024 7.289470 -0.143120 100
0.690967 6.965026 -0.539789 101
0.025550 7.088883 -0.396333 3
1.381385 7.029264 -0.483349 101
0.920916 6.998790 -1.148892 19
0.713618 7.181185 -0.223007 52
1.395389 7.094281 -0.376389 101
0.898485 6.819541 -0.756960 84
0.722199 7.255265 -0.113265 76
0.245984 6.900496 -0.612600 27
0.926197 7.020856 -0.450506 79
0.255461 7.133003 -0.302897 80
0.938626 7.105952 -0.345542 83
0.258798 7.192711 -0.194755 50
1.132022 6.875082 -0.672136 100
0.968171 7.320237 -0.015465 56
0.472071 6.940327 -0.523052 101
1.145086 6.947210 -0.570212 88
0.982433 7.418573 0.099269 34
0.481594 7.062970 -0.423072 58
1.354746 6.845529 -0.686687 101
1.211029 7.324500 -0.029802 101
0.707348 7.023051 -0.435431 100
1.379462 6.964331 -0.588687 41
0.715522 7.092367 -0.329931 99
1.420186 7.163674 -0.267792 101
0.919070 6.896012 -0.657629 101
0.743208 7.354543 -0.001290 100
0.258119 6.948573 -0.509403 73
0.930939 6.976202 -0.556378 93
0.754013 7.449072 0.113696 25
0.263557 7.063273 -0.408787 80
0.958860 7.176325 -0.237649 60
0.473092 6.821190 -0.725898 55
1.133974 6.823172 -0.774617 73
0.972623 7.270111 -0.128031 68
0.481299 6.922832 -0.629106 101
1.175132 7.063552 -0.469333 64
0.674083 6.626405 -0.977851 97
0.497289 7.135658 -0.317309 71
1.181290 7.093278 -0.360504 100
0.695805 6.828650 -0.742034 100
0.501543 7.179482 -0.208573 89
1.201260 7.183862 -0.253076 101
0.703027 6.854568 -0.638002 101
0.509834 7.229373 -0.098668 67
1.219461 7.285257 -0.143120 100
0.714868 6.958605 -0.539482 101
0.050238 7.080764 -0.395886 60
1.405914 7.024399 -0.483349 101
0.946927 7.007270 -1.150819 19
0.738681 7.178650 -0.223007 50
1.421713 7.097200 -0.376804 101
0.923883 6.828183 -0.758273 74
0.747520 7.252699 -0.113265 80
0.271316 6.931445 -0.615428 101
0.952307 7.029448 -0.451267 82
0.280044 7.124081 -0.302558 82
0.962888 7.098673 -0.345349 79
0.283273 7.175782 -0.194322 80
1.158656 6.886795 -0.673673 100
0.995870 7.332667 -0.015499 54
0.495725 6.930680 -0.522452 101
1.170653 6.951034 -0.570858 97
1.007784 7.411136 0.099216 37
0.506531 7.065228 -0.423311 62
1.380993 6.852465 -0.687862 101
0.731031 7.012597 -0.434939 100
0.060511 7.041963 -0.285307 3
1.406916 6.975104 -0.590009 39
0.740689 7.093801 -0.330116 100
0.943676 6.896707 -0.658005 101
0.768876 7.351904 -0.001290 100
0.283021 6.963574 -0.510572 82
0.954744 6.968959 -0.556063 85
0.778760 7.434462 0.113514 100
0.287397 7.042360 -0.407632 82
0.985534 7.184817 -0.238043 58
0.499212 6.851234 -0.729277 63
1.159115 6.827010 -0.775507 87
0.998539 7.270634 -0.128101 60
0.505461 6.921110 -0.629106 101
1.197775 7.047602 -0.468548 62
0.699281 6.643691 -0.980756 100
0.522194 7.133879 -0.317309 57
1.212073 7.124557 -0.362307 100
0.719637 6.826180 -0.742034 100
0.527772 7.193637 -0.209036 79
1.228348 7.191446 -0.253493 101
0.727790 6.859994 -0.638739 101
0.538019 7.267437 -0.099213 74
1.246232 7.288840 -0.143275 101
0.739996 6.963999 -0.540097 101
0.074912 7.076551 -0.395663 65
1.433612 7.035091 -0.484426 101
0.977347 7.046939 -1.157887 15
0.763735 7.176028 -0.223007 49
1.449671 7.107851 -0.377636 101
0.949353 6.836731 -0.759586 79
0.773680 7.258000 -0.113389 76
0.294152 6.898610 -0.612600 100
0.978487 7.037942 -0.452029 80
0.305081 7.127053 -0.302727 84
0.989864 7.111098 -0.346120 86
0.503757 6.728576 -0.906290 4
0.307632 7.158771 -0.193889 87
1.181340 6.874860 -0.672904 100
1.022564 7.337069 -0.015515 53
0.520512 6.936862 -0.523052 101
1.196261 6.954764 -0.571503 90
1.034200 7.411534 0.099269 36
0.530292 7.051472 -0.422595 60
1.404904 6.847603 -0.687862 101
0.755077 7.006033 -0.434692 100
0.086733 7.177588 -0.290812 81
1.431256 6.970150 -0.590009 42
0.765447 7.091172 -0.330116 100
0.968298 6.897315 -0.658382 101
0.795824 7.361106 -0.001292 100
0.307502 6.966529 -0.510864 87
0.980174 6.973482 -0.556693 100
0.806429 7.447603 0.113757 88
0.311801 7.037325 -0.407401 91
1.010051 7.177374 -0.237911 56
0.521307 6.825653 -0.726743 74
1.184976 6.834672 -0.776842 87
1.024470 7.271064 -0.128170 68
0.529921 6.923275 -0.629467 101
1.225781 7.063041 -0.469856 62
0.725035 6.664815 -0.984242 101
0.547092 7.132013 -0.317309 66
1.235568 7.112410 -0.361906 100
0.744322 6.831532 -0.742894 93
0.552266 7.183778 -0.208804 69
1.254077 7.191062 -0.253632 101
0.751247 6.853458 -0.638371 101
0.563330 7.265519 -0.099213 61
1.273010 7.292331 -0.143430 100
0.763834 6.957412 -0.539789 101
0.571119 7.349833 0.012867 12
0.099131 7.044301 -0.393877 60
1.459769 7.037862 -0.484964 101
0.790951 7.193191 -0.223625 55
1.476105 7.110568 -0.378052 101
0.973780 6.837311 -0.760023 81
0.799456 7.259230 -0.113452 76
0.317504 6.881620 -0.611186 99
1.001948 7.026576 -0.451521 87
0.330355 7.133927 -0.303067 94
1.013034 7.095727 -0.345542 83
0.526976 6.722820 -0.905758 79
0.333224 7.169633 -0.194214 75
1.205395 6.870683 -0.672904 100
1.048239 7.333445 -0.015515 55
0.544476 6.931022 -0.522752 101
1.222685 6.962311 -0.572472 86
1.062423 7.423703 0.099481 35
0.555930 7.061513 -0.423311 66
1.432195 6.858214 -0.689429 101
0.780999 7.015242 -0.435431 95
0.111064 7.121291 -0.288546 100
1.454111 6.957273 -0.589348 41
0.789919 7.084467 -0.329931 100
0.993118 6.897808 -0.658758 101
0.822152 7.362236 -0.001293 100
0.333522 6.997283 -0.513202 79
1.004714 6.969988 -0.556693 96
0.833973 7.456643 0.113939 80
0.337142 7.048150 -0.408094 89
1.038184 7.193556 -0.238567 63
0.546616 6.839634 -0.728432 73
1.207679 6.822624 -0.775952 80
1.051242 7.275323 -0.128310 64
0.553690 6.913422 -0.628744 101
1.249998 7.054742 -0.469594 64
0.749872 6.674015 -0.985986 101
0.572893 7.138004 -0.317663 68
1.260676 7.108003 -0.361906 95
0.767996 6.824910 -0.742464 88
0.576989 7.173812 -0.208573 74
1.279872 7.190577 -0.253771 101
0.775165 6.850794 -0.638371 101
0.588042 7.255535 -0.099104 65
1.299158 7.291780 -0.143507 100
0.789462 6.966592 -0.540712 100
0.594828 7.323873 0.012825 61
0.123790 7.047905 -0.394100 59
1.481855 7.021008 -0.484157 101
0.815604 7.186413 -0.223501 50
0.339855 6.870341 -0.716916 36
1.502568 7.113189 -0.378468 101
0.998789 6.841739 -0.760898 60
0.825694 7.264343 -0.113576 84
0.342906 6.908326 -0.613660 101
1.027624 7.030936 -0.452029 76
0.354857 7.124748 -0.302727 88
1.038954 7.100054 -0.345927 90
0.547851 6.689331 -0.901498 64
0.359446 7.192388 -0.194863 63
1.230775 6.874272 -0.673673 100
1.074991 7.337657 -0.015532 49
0.569319 6.937029 -0.523351 101
1.243464 6.938379 -0.570858 86
1.088910 7.423906 0.099534 31
0.580576 7.059529 -0.423311 61
1.454472 6.845386 -0.688646 100
0.805937 7.016440 -0.435677 95
0.135387 7.092888 -0.287412 100
1.483362 6.975550 -0.591331 40
0.814644 7.081666 -0.329931 99
1.017190 6.894300 -0.658758 101
0.847846 7.359322 -0.001293 100
0.357945 6.996076 -0.513202 78
1.028455 6.962494 -0.556378 93
0.859996 7.453686 0.113939 80
0.361333 7.038954 -0.407632 82
1.062703 7.185933 -0.238436 66
0.569826 6.829757 -0.727588 76
1.230780 6.814455 -0.775507 85
1.077803 7.279522 -0.128450 70
0.578815 6.923357 -0.629828 101
1.276036 7.058191 -0.470118 66
0.771342 6.655631 -0.983661 101
0.596138 7.116051 -0.316777 63
1.286902 7.111421 -0.362307 100
0.793190 6.834038 -0.743753 100
0.603364 7.187692 -0.209036 73
1.304249 7.182132 -0.253632 100
0.799074 6.848046 -0.638371 101
0.614039 7.261409 -0.099213 65
0.145888 6.984726 -0.498329 51
1.322458 7.275396 -0.143275 62
0.812387 6.951910 -0.539789 101
0.622754 7.349652 0.012874 63
0.148391 7.047430 -0.394100 52
1.504678 7.007989 -0.483618 101
0.839755 7.175581 -0.223254 49
0.364466 6.881032 -0.718160 101
1.526549 7.103995 -0.378260 100
1.020313 6.822482 -0.759148 56
0.850581 7.257444 -0.113514 82
0.367864 6.923002 -0.615074 101
1.053934 7.039150 -0.452791 93
0.379725 7.123466 -0.302727 88
1.063731 7.096384 -0.345927 85
0.569511 6.667627 -0.898835 60
0.384764 7.195082 -0.194971 64
1.255478 6.873851 -0.674057 100
1.101785 7.341771 -0.015549 55
0.593871 6.938974 -0.523651 101
1.272695 6.961450 -0.573118 98
0.606238 7.069395 -0.424026 71
0.829955 7.009619 -0.435431 95
0.160867 7.124338 -0.288707 100
1.506860 6.966434 -0.591000 38
0.839359 7.078779 -0.329931 96
1.041844 6.894644 -0.659135 101
0.874473 7.364262 -0.001294 100
0.381710 6.982833 -0.512326 77
1.053946 6.966747 -0.557008 100
0.886481 7.454610 0.114000 74
0.386120 7.041637 -0.407863 94
1.087780 7.182180 -0.238436 60
0.594696 6.839614 -0.728854 85
1.255280 6.814026 -0.775952 93
1.102007 7.267807 -0.128310 73
0.602633 6.917325 -0.629467 101
1.302837 7.065470 -0.470903 63
0.795039 6.656828 -0.984242 101
0.622711 7.133831 -0.317663 68
1.313893 7.118672 -0.362907 97
0.815152 6.815433 -0.742034 100
0.628450 7.185542 -0.209036 75
1.329331 7.177532 -0.253632 101
0.822992 6.845213 -0.638371 101
0.640104 7.267188 -0.099322 72
0.170092 6.976197 -0.497760 101
0.837613 6.956950 -0.540404 101
0.649121 7.355402 0.012888 60
0.173198 7.054853 -0.394546 54
1.532541 7.018290 -0.484695 101
0.863366 7.160697 -0.222884 52
0.387366 6.859857 -0.716087 100
1.045323 6.826739 -0.760023 52
0.876865 7.262372 -0.113638 85
0.392025 6.921676 -0.615074 101
1.079699 7.043321 -0.453299 86
0.404805 7.126088 -0.302897 78
1.091509 7.112376 -0.346890 88
0.598384 6.728781 -0.907355 74
0.410542 7.205672 -0.195296 62
1.280899 6.877259 -0.674825 100
1.127988 7.341838 -0.015557 49
0.618065 6.936861 -0.523651 101
1.297687 6.960890 -0.573441 98
0.631590 7.075192 -0.424504 63
0.855815 7.018575 -0.436170 100
0.184952 7.095767 -0.287574 100
1.531965 6.965037 -0.591331 40
0.866909 7.099611 -0.331041 100
1.064621 6.883105 -0.658382 101
0.900104 7.361173 -0.001294 100
0.406016 6.981462 -0.512326 77
1.078184 6.963037 -0.557008 100
0.913877 7.463390 0.114182 81
0.410391 7.036264 -0.407632 87
1.115823 7.198105 -0.239092 58
0.618488 6.837504 -0.728854 80
0.426014 7.283052 -0.085315 80
1.279705 6.813526 -0.776397 91
1.130345 7.283691 -0.128659 63
0.627047 6.919155 -0.629828 101
1.326659 7.056974 -0.470641 64
0.819629 6.665807 -0.985986 101
0.648235 7.139582 -0.318018 68
1.337152 7.106209 -0.362507 100
0.840781 6.828347 -0.743753 100
0.654148 7.191278 -0.209268 75
1.356830 7.192726 -0.254326 101
0.847153 6.854305 -0.639477 101
0.663107 7.253076 -0.099158 67
0.193115 6.971606 -0.497476 92
0.860679 6.954134 -0.540404 100
0.673144 7.349225 0.012881 57
0.196146 7.038271 -0.393653 55
1.556671 7.017065 -0.484964 101
0.887599 7.161762 -0.223007 51
0.409400 6.846620 -0.714843 100
1.067955 6.823236 -0.760023 56
0.902421 7.271332 -0.113824 89
0.415214 6.924315 -0.615428 101
1.104285 7.047589 -0.453807 79
0.428913 7.132684 -0.303236 85
1.113850 7.100823 -0.346505 84
0.620694 6.726760 -0.907355 95
0.433712 7.192297 -0.194971 62
1.302956 6.869062 -0.674441 100
1.152328 7.338057 -0.015557 54
0.640698 6.930801 -0.523351 101
1.323738 6.972216 -0.574732 100
0.656153 7.084987 -0.425220 60
0.878589 7.011737 -0.435924 95
0.208834 7.107100 -0.288060 100
1.555053 6.959919 -0.591331 36
0.888955 7.084804 -0.330486 100
1.090549 6.899204 -0.660264 100
0.926005 7.370054 -0.001296 100
0.429165 6.980078 -0.512326 87
1.102515 6.967300 -0.557639 98
0.938621 7.460319 0.114182 80
0.434705 7.050808 -0.408556 84
1.138435 7.186468 -0.238830 49
0.640416 6.827495 -0.728010 86
0.449916 7.277607 -0.085269 100
1.305280 6.824862 -0.778178 82
1.153239 7.272002 -0.128520 63
0.649989 6.917037 -0.629828 101
1.349303 7.048616 -0.470379 62
0.840737 6.655200 -0.984824 100
0.671158 7.129436 -0.317663 63
1.361462 7.105660 -0.362707 100
0.863919 6.829466 -0.744183 100
0.677241 7.181108 -0.209036 77
1.384948 7.203649 -0.254882 100
0.871074 6.851306 -0.639477 101
0.688421 7.250717 -0.099158 61
0.218196 6.994817 -0.499183 100
0.885955 6.959000 -0.541019 100
0.701444 7.374705 0.012929 62
0.221089 7.049520 -0.394323 55
1.585545 7.031054 -0.486311 101
0.916132 7.186382 -0.223872 54
0.431788 6.821326 -0.712355 99
1.094280 6.835170 -0.761773 53
0.928810 7.276072 -0.113949 74
0.439887 6.930777 -0.616135 101
1.130142 7.051575 -0.454315 84
0.959621 7.507386 0.231238 71
0.453047 7.119179 -0.302727 86
1.138630 7.096892 -0.346505 74
0.642281 6.704821 -0.904693 101
0.459579 7.202711 -0.195296 68
1.328437 6.872290 -0.675209 100
1.176667 7.326091 -0.015540 55
0.664887 6.928523 -0.523351 101
1.347310 6.963639 -0.574409 86
0.678588 7.058806 -0.423788 60
0.905100 7.024466 -0.436909 100
0.233903 7.114316 -0.288384 100
1.581987 6.966111 -0.592322 38
0.915725 7.097509 -0.331226 100
1.112719 6.883561 -0.659135 101
0.951213 7.362810 -0.001296 100
0.453010 6.970575 -0.511741 89
1.129376 6.979155 -0.558900 100
0.965170 7.460963 0.114243 72
0.459314 7.049247 -0.408556 94
1.166710 7.202183 -0.239486 50
0.665400 6.837095 -0.729277 96
0.475317 7.275992 -0.085269 98
1.330616 6.828068 -0.779068 20
1.179897 7.275828 -0.128659 73
0.676062 6.934551 -0.631633 101
0.015563 7.117620 -0.384232 5
1.376191 7.055616 -0.471164 55
0.866002 6.667923 -0.987148 101
0.697594 7.142959 -0.318372 61
1.386257 7.100864 -0.362707 98
0.888266 6.830353 -0.744613 87
0.702303 7.178700 -0.209036 67
0.236010 6.929919 -0.601763 38
1.407814 7.186995 -0.254465 100
0.897081 6.864017 -0.640952 101
0.716504 7.276129 -0.099539 72
0.242229 6.982049 -0.498329 95
0.909744 6.951908 -0.540712 100
0.721314 7.312499 0.012825 63
0.246411 7.068661 -0.395440 53
1.611869 7.033255 -0.486849 101
0.942259 7.191068 -0.224119 54
0.457460 6.847564 -0.715258 100
1.116201 6.819538 -0.760461 53
0.953157 7.264855 -0.113824 96
0.464073 6.929199 -0.616135 101
1.154087 7.043651 -0.454061 88
0.987885 7.519849 0.231726 52
0.478145 7.121542 -0.302897 82
1.165305 7.104707 -0.347083 85
0.665653 6.702541 -0.904693 101
0.483882 7.189096 -0.194971 62
1.353145 6.871526 -0.675593 100
1.202188 7.321947 -0.015540 32
0.690210 6.938071 -0.524251 101
1.370784 6.954992 -0.574086 86
0.703960 7.064346 -0.424265 65
0.929521 7.021276 -0.436909 100
0.259222 7.129436 -0.289031 100
1.607981 6.968338 -0.592984 34
0.940912 7.098245 -0.331411 100
0.460101 6.735394 -0.846876 17
0.263021 7.200922 -0.181138 48
1.137922 6.887512 -0.659887 101
0.977837 7.367392 -0.001297 100
0.478039 6.980899 -0.512618 91
1.152300 6.967323 -0.558269 97
0.992649 7.469461 0.114425 74
0.484606 7.059562 -0.409249 96
1.192349 7.202034 -0.239617 59
0.687925 6.822872 -0.728010 83
0.500289 7.270309 -0.085222 100
1.206433 7.279583 -0.128799 64
0.698108 6.912347 -0.629828 101
0.040046 7.081576 -0.382291 59
1.401419 7.054718 -0.471426 47
0.888588 6.660958 -0.986567 101
0.720742 7.124594 -0.317663 70
1.413967 7.111691 -0.363508 88
0.912453 6.831176 -0.745043 100
0.729590 7.200091 -0.209731 72
0.260169 6.933042 -0.602109 64
0.922095 6.868739 -0.641690 101
0.741492 7.269605 -0.099485 79
0.266599 6.981161 -0.498329 96
0.936131 6.964500 -0.541942 100
0.750494 7.345750 0.012888 60
0.270472 7.051794 -0.394546 55
1.640031 7.043134 -0.487926 23
0.968954 7.199622 -0.224490 49
0.481918 6.853863 -0.716087 100
1.142623 6.831286 -0.762211 60
0.980647 7.277339 -0.114073 79
0.487977 6.923563 -0.615781 101
1.178667 7.039579 -0.454061 84
0.503283 7.123816 -0.303067 80
1.190098 7.100596 -0.347083 92
0.689451 6.704120 -0.905225 101
0.510104 7.203318 -0.195404 58
1.377123 6.866761 -0.675593 100
0.715242 6.943555 -0.524851 101
1.397407 6.961892 -0.575055 80
0.729434 7.069789 -0.424742 66
0.954562 7.021945 -0.437155 100
0.771285 7.439029 0.127933 17
0.284107 7.128488 -0.289031 100
1.634115 6.970446 -0.593645 25
0.967840 7.110754 -0.332150 100
0.482472 6.717911 -0.844885 44
0.288635 7.211946 -0.181439 100
1.163946 6.895278 -0.661017 101
1.004088 7.367897 -0.001298 100
0.503263 6.991125 -0.513495 87
1.176613 6.963259 -0.558269 99
1.018716 7.465950 0.114425 72
0.509533 7.061810 -0.409480 75
1.218815 7.205712 -0.239880 63
0.713801 6.840209 -0.730121 84
0.526529 7.280486 -0.085362 99
1.232503 7.279271 -0.128869 67
0.723475 6.921754 -0.630911 101
0.064838 7.089381 -0.382722 65
1.426036 7.049783 -0.471426 60
0.912371 6.661736 -0.987148 100
0.748104 7.145881 -0.318727 69
1.440369 7.114544 -0.363909 100
0.936293 6.827949 -0.745043 100
0.755553 7.205453 -0.209963 70
0.284532 6.936073 -0.602455 57
0.944435 6.853642 -0.640583 101
0.765604 7.255040 -0.099322 63
0.290966 6.980188 -0.498329 100
0.960981 6.965141 -0.542250 100
0.777813 7.358997 0.012915 54
0.295587 7.062778 -0.395216 60
0.995174 7.204117 -0.224737 48
0.506426 6.860075 -0.716916 101
1.168471 6.839014 -0.763524 54
1.006043 7.273871 -0.114073 76
0.512730 6.929764 -0.616488 101
1.205251 7.047226 -0.454823 79
0.526964 7.106074 -0.302388 82
1.216899 7.108213 -0.347661 87
0.713267 6.705615 -0.905758 101
0.535838 7.209468 -0.195621 62
1.401881 6.865813 -0.675977 100
0.739475 6.941016 -0.524851 101
1.425691 6.976503 -0.576670 86
0.753260 7.059259 -0.424265 65
0.980722 7.030432 -0.437894 92
0.797673 7.440268 0.128002 67
0.308815 7.123460 -0.288869 100
0.992655 7.107332 -0.332150 100
0.507410 6.735975 -0.847374 46
0.314329 7.222880 -0.181741 89
1.189361 6.899022 -0.661770 100
1.031463 7.376231 -0.001300 100
0.527964 6.993304 -0.513787 79
1.201590 6.963039 -0.558585 89
1.045880 7.470271 0.114546 77
0.533276 7.048043 -0.408787 89
1.244641 7.205354 -0.240011 67
0.736820 6.829767 -0.729277 88
0.552242 7.282592 -0.085409 88
1.258587 7.278865 -0.128938 62
0.748916 6.931068 -0.631995 101
0.089433 7.077130 -0.382075 65
1.453051 7.056490 -0.472211 50
0.936720 6.666349 -0.988310 101
0.773473 7.147199 -0.318904 65
1.464388 7.105560 -0.363709 91
0.960675 6.828578 -0.745473 100
0.778976 7.186872 -0.209500 76
0.308919 6.939019 -0.602801 61
0.968878 6.854251 -0.640952 101
0.794792 7.288111 -0.099812 71
0.314937 6.971159 -0.497760 100
0.985267 6.961747 -0.542250 100
0.805646 7.376122 0.012950 64
0.320037 7.057714 -0.394993 59
1.017502 7.180808 -0.224119 48
0.530054 6.854299 -0.716502 101
1.193707 6.842726 -0.764399 56
1.033680 7.286154 -0.114321 75
0.537229 6.931904 -0.616842 101
1.229861 7.042974 -0.454823 88
0.553950 7.132081 -0.303575 77
1.243110 7.111788 -0.348046 89
0.736699 6.703081 -0.905758 101
0.561341 7.211538 -0.195729 56
1.427500 6.868665 -0.676745 100
0.763305 6.934423 -0.524551 101
0.105057 7.177888 -0.277031 16
1.448466 6.963665 -0.576024 78
0.778828 7.064518 -0.424742 65
1.004784 7.023001 -0.437648 89
0.824179 7.441402 0.128070 61
0.334148 7.130319 -0.289193 100
1.016999 7.099853 -0.331965 100
0.531021 6.734155 -0.847374 53
0.339085 7.209750 -0.181439 65
1.214242 6.898730 -0.662146 100
1.057896 7.376527 -0.001301 100
0.551862 6.983455 -0.513202 94
1.228786 6.974487 -0.559846 97
1.070384 7.454678 0.114364 71
0.558638 7.054090 -0.409249 89
1.270626 7.204876 -0.240142 63
0.761237 6.831091 -0.729699 84
0.578758 7.292570 -0.085549 92
1.286930 7.290153 -0.129218 61
0.773260 6.928395 -0.631995 101
0.113971 7.056804 -0.380997 61
1.477844 7.051340 -0.472211 62
0.959016 6.655182 -0.987148 99
0.796813 7.128551 -0.318195 67
0.328815 6.868260 -0.703302 45
1.491006 7.108186 -0.364109 94
0.985250 6.829093 -0.745903 100
0.805134 7.192035 -0.209731 66
0.332744 6.925949 -0.601763 54
0.996166 6.882536 -0.643902 101
0.818510 7.281461 -0.099757 80
0.338439 6.978047 -0.498329 100
1.007204 6.950547 -0.541635 100
0.829654 7.369434 0.012943 51
0.343051 7.048636 -0.394546 62
1.043031 7.189264 -0.224490 51
0.553421 6.860435 -0.717331 101
1.214999 6.830901 -0.763524 62
1.059561 7.294560 -0.114508 83
0.560534 6.934056 -0.617195 101
1.253909 7.042787 -0.455077 75
0.576952 7.122238 -0.303236 79
1.264584 7.095826 -0.347468 79
0.757584 6.688784 -0.904160 101
0.584282 7.197681 -0.195404 60
1.448623 6.856103 -0.675977 100
0.786296 6.931854 -0.524551 101
0.128285 7.145529 -0.275797 75
1.471550 6.958824 -0.576024 88
0.803603 7.073799 -0.425458 59
1.028068 7.019630 -0.437648 100
0.846584 7.418760 0.127728 54
0.356789 7.109213 -0.288384 100
1.039957 7.092488 -0.331780 100
0.554000 6.740268 -0.848370 65
0.362791 7.204593 -0.181339 61
1.238519 6.902504 -0.662899 100
1.081771 7.369021 -0.001300 98
0.575672 6.989539 -0.513787 92
1.251203 6.966449 -0.559530 86
0.582355 7.056179 -0.409480 96
1.298049 7.220297 -0.240798 63
0.784339 6.832480 -0.730121 88
0.602279 7.282639 -0.085456 89
0.134901 6.989882 -0.485193 41
1.308973 7.274037 -0.129008 18
0.795321 6.917877 -0.631272 101
0.609818 7.358726 0.027064 68
0.137216 7.048400 -0.380566 61
1.501219 7.046401 -0.472211 57
0.979926 6.644135 -0.985986 62
0.821819 7.137779 -0.318727 59
0.349758 6.831365 -0.699639 71
1.515403 7.107110 -0.364309 46
1.007309 6.821854 -0.745473 100
0.829895 7.197270 -0.209963 78
0.355505 6.920827 -0.601417 58
1.016679 6.855377 -0.641690 101
0.845304 7.290479 -0.099921 71
0.362380 6.968854 -0.497760 100
1.033217 6.958824 -0.542557 100
0.853528 7.350600 0.012915 59
0.367653 7.047396 -0.394546 54
1.069884 7.197443 -0.224860 49
0.578032 6.866390 -0.718160 101
1.238836 6.826618 -0.763524 58
1.085017 7.290817 -0.114508 85
0.584400 6.928087 -0.616842 100
1.280626 7.050149 -0.455839 89
0.601137 7.112216 -0.302897 77
1.290775 7.099230 -0.347853 83
0.781848 6.693974 -0.905225 101
0.609741 7.199582 -0.195512 58
1.475057 6.862682 -0.677129 94
0.811878 6.940952 -0.525451 101
0.153141 7.141041 -0.275643 75
1.500025 6.973134 -0.577638 86
0.829683 7.082848 -0.426174 57
1.053157 7.019947 -0.437894 100
0.873409 7.423704 0.127865 53
0.381603 7.107924 -0.288384 100
1.067082 7.104620 -0.332520 100
0.577524 6.738293 -0.848370 80
0.387937 7.203282 -0.181339 61
1.264040 6.905974 -0.663652 100
1.111056 7.388933 -0.001304 93
0.600749 6.995436 -0.514372 84
1.277668 6.973806 -0.560476 98
0.608352 7.070017 -0.410404 85
1.321802 7.207857 -0.240536 63
0.808184 6.829701 -0.730121 85
0.629070 7.296432 -0.085643 89
0.159481 6.997347 -0.485747 75
0.818995 6.911103 -0.630911 101
0.638599 7.392418 0.027196 94
0.162461 7.075830 -0.382075 55
1.526651 7.045018 -0.472472 58
1.004294 6.648500 -0.987148 40
0.846729 7.134867 -0.318727 58
0.375340 6.861889 -0.702895 82
1.035279 6.845821 -0.748482 97
0.855957 7.202270 -0.210195 68
0.380971 6.943419 -0.603492 75
1.043027 6.867533 -0.643165 101
0.868883 7.271594 -0.099703 60
0.387179 6.975513 -0.498329 100
1.056922 6.951229 -0.542250 100
0.881103 7.363460 0.012943 57
0.392716 7.054044 -0.394993 57
1.093806 7.185758 -0.224613 50
0.602352 6.868293 -0.718575 101
1.264824 6.833982 -0.764836 54
1.108648 7.275124 -0.114321 100
0.607878 6.918067 -0.616135 101
1.305937 7.049565 -0.456092 83
0.627343 7.126000 -0.303575 87
1.317703 7.106472 -0.348431 87
0.805181 6.691207 -0.905225 101
0.634837 7.197412 -0.195512 60
0.836537 6.942041 -0.525751 101
0.177326 7.112494 -0.274563 69
1.526005 6.975657 -0.578284 88
0.853868 7.075952 -0.425935 68
1.078774 7.024135 -0.438387 99
0.900662 7.432533 0.128070 60
0.407458 7.126505 -0.289193 100
1.091161 7.096920 -0.332335 100
0.600940 6.736245 -0.848370 73
0.413199 7.205883 -0.181439 62
1.288022 6.901541 -0.663652 100
1.136108 7.381076 -0.001303 91
0.623270 6.973439 -0.512910 81
1.301141 6.965408 -0.560161 86
0.631470 7.051953 -0.409480 85
1.348276 7.211086 -0.240798 71
0.832360 6.830804 -0.730543 82
0.652957 7.278270 -0.085456 99
0.183971 7.004730 -0.486301 84
0.843926 6.916129 -0.631633 101
0.665667 7.406095 0.027254 93
0.186790 7.067238 -0.381644 54
1.551064 7.039684 -0.472472 57
1.048499 6.781867 -1.007483 37
0.873397 7.147755 -0.319436 64
0.399818 6.872464 -0.704116 75
1.055950 6.822543 -0.746333 100
0.881392 7.203230 -0.210311 68
0.404098 6.926144 -0.602109 68
