# This PCD file was generated using the MATLAB® pcwrite function
# from Computer Vision Toolbox®.
# .PCD v.7 - Point Cloud Data file format
VERSION .7
FIELDS x y z intensity
SIZE 4 4 4 1
TYPE F F F U
COUNT 1 1 1 1
WIDTH 1518
HEIGHT 1
VIEWPOINT 0 0 0 1 0 0 0
POINTS 1518
DATA ascii
-0.269922 3.308987 0.012168 68
-0.458738 3.150138 -0.171848 92
0.152890 3.333336 -0.218708 70
0.048110 3.402266 0.097421 59
-0.055995 3.173483 -0.465975 100
-0.162539 3.284747 -0.145891 92
-0.272279 3.344780 0.167064 45
-0.357361 3.151256 -0.324382 101
-0.469227 3.225953 -0.025604 70
0.154870 3.364208 -0.168836 85
0.049224 3.440317 0.151426 57
-0.056498 3.232669 -0.349521 83
-0.162081 3.286624 -0.095364 71
-0.274066 3.373701 0.220666 50
-0.358698 3.167773 -0.276673 100
-0.472715 3.253748 0.024676 83
0.250167 3.193747 -0.665869 100
0.157152 3.366300 -0.117093 98
0.051293 3.429569 0.203777 84
-0.054220 3.221761 -0.298349 78
-0.160393 3.295794 -0.044923 72
-0.272536 3.382024 0.273589 72
-0.355293 3.155995 -0.226539 100
-0.469924 3.249337 0.075078 66
0.258146 3.288542 -0.375835 101
0.158716 3.387647 -0.065710 100
-0.053950 3.237934 -0.249749 77
-0.161212 3.324088 0.005808 65
-0.357789 3.182952 -0.179075 72
0.263222 3.346031 -0.226460 93
0.162261 3.450955 0.092276 88
0.049194 3.217287 -0.523684 101
-0.054531 3.305972 -0.102176 54
-0.163559 3.384172 0.162150 64
-0.254589 3.172562 -0.331714 100
-0.365828 3.259378 -0.032058 74
0.264651 3.357024 -0.175301 100
0.163694 3.469066 0.146166 93
0.050145 3.244026 -0.357040 100
-0.054258 3.323156 -0.051631 55
-0.164199 3.409224 0.215935 58
-0.254753 3.181280 -0.283146 91
-0.367522 3.279419 0.018431 70
0.272498 3.449192 -0.020532 88
0.051764 3.312898 -0.210778 71
-0.054589 3.377982 0.103220 58
-0.155720 3.244472 -1.514664 43
-0.257855 3.226800 -0.137372 84
-0.370487 3.310885 0.172267 69
-0.449658 3.123955 -0.316695 100
0.274014 3.461016 0.032722 82
0.052741 3.339705 -0.161022 70
-0.054503 3.407970 0.156563 71
-0.150945 3.156018 -0.424391 101
-0.259360 3.252481 -0.088289 69
-0.373585 3.343624 0.225824 62
-0.452611 3.148202 -0.269875 101
0.157229 3.296931 -0.318401 100
0.053745 3.367564 -0.007054 53
-0.152291 3.195343 -0.240532 78
-0.263623 3.312926 0.063232 72
-0.356749 3.197789 -0.925193 16
-0.453372 3.157240 -0.123091 92
0.159329 3.329277 -0.269930 93
0.054432 3.375264 0.044780 62
-0.155513 3.274461 -0.195906 73
-0.266125 3.351462 0.115642 51
-0.351295 3.153681 -0.381188 80
-0.457601 3.190482 -0.074832 72
0.266381 3.329229 -0.328654 100
0.164037 3.392009 -0.013632 98
-0.049432 3.261425 -0.201215 69
-0.156750 3.335831 0.057125 62
-0.252854 3.204700 -1.143551 32
-0.355021 3.201734 -0.130509 84
0.266673 3.325876 -0.276660 86
0.166340 3.427746 0.038934 79
-0.049227 3.284115 -0.152020 71
-0.157442 3.362542 0.109317 70
-0.248279 3.153450 -0.396802 101
-0.355545 3.211357 -0.081220 86
0.273409 3.402739 -0.125175 98
0.055519 3.272937 -0.309428 80
-0.049915 3.367630 -0.000588 62
-0.160009 3.429653 0.270213 48
-0.251839 3.205505 -0.235559 100
-0.364270 3.295200 0.069445 70
-0.431934 3.029549 -0.738358 101
0.274420 3.408195 -0.072817 82
0.056278 3.285267 -0.259748 81
-0.049581 3.383247 0.051382 77
-0.252492 3.220720 -0.186841 82
-0.366190 3.317651 0.121225 62
-0.444742 3.123125 -0.367793 101
0.279792 3.467662 0.086238 90
0.157437 3.211009 -0.586907 101
0.057942 3.349695 -0.109967 81
-0.049739 3.433187 0.210606 45
-0.147973 3.194603 -0.339513 101
-0.256724 3.281749 -0.038495 78
-0.371623 3.372040 0.280103 61
-0.450651 3.168414 -0.222103 100
0.282809 3.497756 0.140943 64
0.161540 3.283477 -0.368165 99
0.058804 3.366974 -0.058780 72
-0.049683 3.469434 0.266377 43
-0.148763 3.223337 -0.292523 100
-0.259304 3.321872 0.012212 69
-0.450548 3.171493 -0.172926 86
0.165115 3.344742 -0.219493 77
0.060056 3.406075 0.097535 60
-0.045029 3.181574 -0.467138 100
-0.150522 3.273319 -0.145359 91
-0.260602 3.345710 0.167064 50
-0.347228 3.160395 -0.325196 100
-0.456840 3.219651 -0.025541 62
0.165822 3.347686 -0.168035 91
0.061232 3.440125 0.151426 61
-0.045214 3.232846 -0.349521 90
-0.150425 3.283176 -0.095248 70
-0.262288 3.374637 0.220666 50
-0.348941 3.180890 -0.277710 100
-0.460232 3.247458 0.024616 77
0.261944 3.200661 -0.667497 100
0.169093 3.369724 -0.117232 94
0.063255 3.429369 0.203777 83
-0.043088 3.229896 -0.299086 75
-0.149076 3.300329 -0.044978 72
-0.261351 3.390905 0.274232 65
-0.345580 3.169114 -0.227393 94
-0.459146 3.254916 0.075170 91
0.270917 3.303465 -0.377646 101
0.171138 3.399056 -0.065942 84
-0.042810 3.250066 -0.250671 67
-0.149614 3.324630 0.005808 69
-0.347978 3.196092 -0.179745 82
-0.463960 3.293046 0.127174 27
0.275225 3.349070 -0.226730 90
0.174505 3.454361 0.092383 75
0.060644 3.228938 -0.525611 101
-0.042993 3.306142 -0.102176 56
-0.151926 3.388714 0.162342 75
-0.243211 3.169465 -0.331299 101
-0.355314 3.268587 -0.032136 72
0.276697 3.360061 -0.175509 89
0.176006 3.472464 0.146334 83
0.061696 3.255757 -0.358353 100
-0.042965 3.347320 -0.052004 55
-0.152118 3.405789 0.215682 58
-0.243341 3.178178 -0.282793 88
-0.355208 3.272729 0.018386 70
0.284541 3.448219 -0.020532 83
0.063256 3.308706 -0.210524 76
-0.042691 3.370157 0.102976 67
-0.145839 3.277591 -1.529878 21
-0.247499 3.239635 -0.137881 82
-0.360215 3.324073 0.172887 69
-0.439853 3.133389 -0.317494 100
0.287091 3.471996 0.032835 88
0.064176 3.327516 -0.160444 70
-0.042699 3.416131 0.156930 61
-0.140096 3.160487 -0.424923 101
-0.248605 3.261341 -0.088505 59
-0.362332 3.348876 0.226092 61
-0.442165 3.153711 -0.270214 101
0.168340 3.288409 -0.317632 97
0.065589 3.371355 -0.007062 47
-0.140949 3.191871 -0.240232 78
-0.251742 3.309839 0.063156 78
-0.344335 3.187550 -0.921877 15
-0.444000 3.170681 -0.123553 96
0.170555 3.320737 -0.269285 100
0.065993 3.363057 0.044620 62
-0.144067 3.274984 -0.195906 78
-0.253805 3.344400 0.115367 54
-0.341122 3.162786 -0.382143 88
-0.447555 3.199983 -0.075017 77
0.276700 3.312409 -0.327087 100
0.176109 3.395409 -0.013648 98
-0.037837 3.245610 -0.200229 67
-0.145080 3.336359 0.057125 69
-0.240792 3.194291 -1.139529 37
-0.340833 3.175139 -0.129376 82
-0.469675 3.370542 0.182519 1
0.278974 3.332867 -0.277321 100
0.178125 3.423148 0.038889 81
-0.037643 3.276276 -0.151650 69
-0.145502 3.359078 0.109187 68
-0.237244 3.154300 -0.396802 101
-0.346436 3.232461 -0.081723 84
0.284983 3.397778 -0.125028 95
0.066974 3.272722 -0.309428 73
-0.038173 3.371784 -0.000589 59
-0.148176 3.434176 0.270527 50
-0.241214 3.214324 -0.236143 94
-0.352734 3.296454 0.069445 73
-0.421327 3.031042 -0.738358 101
0.286351 3.407213 -0.072817 82
0.067862 3.289037 -0.260063 84
-0.037602 3.371402 0.051200 61
-0.241811 3.229548 -0.187303 69
-0.354997 3.322888 0.121370 60
-0.434898 3.132533 -0.368720 101
0.293277 3.482599 0.086635 88
0.168268 3.202579 -0.585470 100
0.069506 3.341477 -0.109704 66
-0.037803 3.441324 0.211096 50
-0.135933 3.175232 -0.337401 101
-0.244634 3.274651 -0.038401 83
-0.356851 3.345573 0.277799 55
-0.440100 3.173925 -0.222380 100
0.295397 3.500727 0.141103 62
0.173669 3.294800 -0.369501 95
0.070515 3.362748 -0.058710 80
-0.037572 3.473575 0.266683 26
-0.137131 3.215878 -0.291801 86
-0.246476 3.306805 0.012154 66
-0.437791 3.161182 -0.172279 100
0.176834 3.344142 -0.219493 81
0.071991 3.405843 0.097535 68
-0.033880 3.181712 -0.467138 94
-0.139051 3.273826 -0.145359 83
-0.248284 3.338635 0.166666 43
-0.336572 3.165549 -0.325603 100
-0.443911 3.209345 -0.025447 64
0.177343 3.343095 -0.167835 95
0.073290 3.439889 0.151426 54
-0.033882 3.232985 -0.349521 81
-0.138916 3.283683 -0.095248 68
-0.251048 3.383497 0.221186 49
-0.336949 3.174168 -0.277019 93
-0.447751 3.241126 0.024556 65
0.274114 3.211434 -0.669939 100
0.180855 3.369113 -0.117232 94
0.075137 3.425135 0.203539 74
-0.031813 3.230026 -0.299086 92
-0.137722 3.304825 -0.045032 69
-0.248928 3.383844 0.273589 64
-0.335772 3.182204 -0.228247 90
-0.447237 3.252537 0.075078 75
0.282786 3.306459 -0.378099 101
0.182572 3.390451 -0.065787 89
-0.031388 3.242220 -0.250056 73
-0.138173 3.329129 0.005815 67
-0.335564 3.185372 -0.179075 89
-0.453006 3.298605 0.127327 82
0.286573 3.344112 -0.226460 100
0.186778 3.457724 0.092490 87
0.071563 3.212918 -0.523041 101
-0.031528 3.314268 -0.102423 59
-0.140427 3.397207 0.162724 66
-0.232436 3.174262 -0.331714 101
-0.342648 3.257874 -0.032019 78
0.289449 3.371015 -0.176133 100
0.188558 3.479810 0.146671 87
0.073239 3.263472 -0.359228 100
-0.031168 3.335452 -0.051817 64
-0.141378 3.434220 0.217450 67
-0.232827 3.186955 -0.283500 91
-0.345035 3.285883 0.018453 68
0.297261 3.455175 -0.020579 81
0.074805 3.308465 -0.210524 85
-0.031000 3.378281 0.103220 60
-0.138407 3.375879 -1.575521 14
-0.235898 3.236494 -0.137711 86
-0.349859 3.337229 0.173506 71
-0.428373 3.130962 -0.317094 101
0.298521 3.463003 0.032760 90
0.075700 3.323277 -0.160251 71
-0.030702 3.408268 0.156563 58
-0.129063 3.160957 -0.424923 100
-0.236930 3.258201 -0.088397 65
-0.351056 3.354090 0.226360 61
-0.431154 3.155235 -0.270214 101
0.181123 3.311655 -0.319937 100
0.077815 3.391100 -0.007104 51
-0.130455 3.208285 -0.241432 71
-0.241345 3.326653 0.063461 82
-0.335604 3.211673 -0.928509 17
-0.434011 3.180132 -0.123862 94
0.182801 3.332064 -0.270253 100
0.078009 3.374802 0.044780 62
-0.132796 3.279457 -0.196145 86
-0.243284 3.361214 0.115917 54
-0.329255 3.156058 -0.381188 97
-0.435302 3.193601 -0.074832 78
0.289297 3.323320 -0.328262 100
0.188623 3.406755 -0.013697 100
-0.026573 3.253706 -0.200722 64
-0.133433 3.336845 0.057125 71
-0.230721 3.210148 -1.144892 32
-0.330986 3.188236 -0.129862 80
-0.451995 3.328624 0.180162 34
0.290952 3.335844 -0.277651 100
0.191847 3.454454 0.039252 78
-0.026207 3.276387 -0.151650 71
-0.133617 3.355571 0.109057 65
-0.226799 3.163026 -0.397798 101
-0.333914 3.221719 -0.081422 86
0.297189 3.400745 -0.125175 100
0.078684 3.284412 -0.310557 74
-0.026372 3.367897 -0.000588 68
-0.136188 3.434672 0.270527 51
-0.230278 3.219125 -0.236436 100
-0.340813 3.293688 0.069361 64
-0.411266 3.036347 -0.739296 101
0.299289 3.418144 -0.073072 72
0.079727 3.304725 -0.261324 89
-0.025956 3.387510 0.051443 59
-0.230252 3.226389 -0.187072 82
-0.342574 3.316154 0.121080 60
-0.423961 3.134032 -0.368720 101
0.305781 3.485538 0.086734 93
0.180327 3.217687 -0.588344 100
0.081849 3.369191 -0.110623 73
-0.025880 3.453413 0.211831 50
-0.125942 3.203509 -0.340357 100
-0.234906 3.299422 -0.038682 89
-0.348443 3.378522 0.280432 67
-0.429553 3.179397 -0.222657 100
0.307615 3.499674 0.141103 43
0.184500 3.282267 -0.368165 95
0.081959 3.350487 -0.058500 78
-0.025418 3.469697 0.266377 26
-0.126061 3.220318 -0.292162 96
-0.235499 3.315625 0.012183 78
-0.425152 3.150816 -0.171632 99
0.189181 3.355460 -0.220278 80
0.083978 3.409568 0.097650 60
-0.022745 3.177853 -0.466557 92
-0.127622 3.274291 -0.145359 91
-0.237476 3.351436 0.167263 47
-0.325927 3.170663 -0.326010 100
-0.436445 3.238623 -0.025667 75
0.189914 3.358410 -0.168636 92
0.085594 3.451597 0.151954 63
-0.022569 3.229107 -0.349091 88
-0.127453 3.284148 -0.095248 70
-0.239799 3.392316 0.221707 49
-0.326680 3.183253 -0.277710 100
-0.438036 3.254562 0.024646 70
0.286363 3.222160 -0.672381 100
0.193299 3.380435 -0.117649 91
0.087600 3.444810 0.204726 81
-0.020513 3.226135 -0.298718 73
-0.126337 3.309282 -0.045087 57
-0.239065 3.412534 0.275840 64
-0.324662 3.183357 -0.228247 90
-0.435350 3.250115 0.074987 60
0.293973 3.301493 -0.377646 101
0.195093 3.401771 -0.066020 90
-0.020120 3.250286 -0.250671 67
-0.126248 3.321597 0.005801 69
-0.325657 3.198443 -0.179745 75
-0.438309 3.276396 0.126410 73
0.299662 3.358992 -0.227537 87
0.199076 3.461043 0.092597 88
0.083083 3.224489 -0.524969 101
-0.019959 3.314358 -0.102423 65
-0.128869 3.405662 0.163107 71
-0.221631 3.179023 -0.332128 100
-0.331678 3.263030 -0.032058 72
0.300859 3.366005 -0.175925 98
0.201164 3.487110 0.147007 87
0.084630 3.263196 -0.359228 100
-0.019548 3.339540 -0.051880 59
-0.129540 3.438681 0.217703 62
-0.222254 3.195698 -0.284207 88
-0.333159 3.283088 0.018431 64
0.308607 3.446149 -0.020532 78
0.086458 3.312174 -0.210778 75
-0.019230 3.382367 0.103342 69
-0.126351 3.369097 -1.572140 40
-0.224599 3.237298 -0.137711 78
-0.337805 3.334455 0.173300 64
-0.418493 3.140329 -0.317893 100
0.310965 3.465923 0.032798 86
0.087824 3.342963 -0.161214 70
-0.018805 3.408354 0.156563 55
-0.118028 3.161388 -0.424923 101
-0.225831 3.262997 -0.088505 55
-0.339747 3.359266 0.226628 62
-0.421715 3.168573 -0.271228 101
0.192913 3.314977 -0.320321 93
0.089335 3.378812 -0.007079 52
-0.119255 3.208721 -0.241432 78
-0.228905 3.315506 0.063232 82
-0.319757 3.166927 -0.915244 21
-0.422381 3.177665 -0.123708 92
0.195360 3.347326 -0.271545 95
0.090215 3.390501 0.044992 57
-0.122086 3.299851 -0.197338 91
-0.232099 3.370019 0.116192 56
-0.318237 3.157188 -0.381188 97
-0.426256 3.210958 -0.075203 78
0.301614 3.330219 -0.329046 100
0.201454 3.422048 -0.013761 100
-0.015271 3.265756 -0.201461 63
-0.121785 3.337290 0.057125 60
-0.219514 3.210933 -1.144892 29
-0.320254 3.193349 -0.130024 82
-0.436708 3.302463 0.178663 67
0.302955 3.338778 -0.277982 100
0.202490 3.429807 0.038979 79
-0.014752 3.272463 -0.151465 71
-0.121758 3.352021 0.108927 70
-0.215487 3.159839 -0.397300 100
-0.323065 3.226844 -0.081522 88
-0.446191 3.378550 0.235314 30
0.309420 3.403668 -0.125321 93
0.090476 3.296060 -0.311687 66
-0.014650 3.375968 -0.000589 59
-0.124918 3.455052 0.272096 43
-0.219310 3.223889 -0.236728 94
-0.330905 3.310775 0.069696 64
-0.403207 3.057039 -0.743987 101
0.311944 3.425044 -0.073242 82
0.090822 3.288483 -0.260063 77
-0.014164 3.395579 0.051564 59
-0.219529 3.235142 -0.187534 74
-0.331790 3.325285 0.121370 68
-0.413537 3.139432 -0.369183 101
0.316493 3.468520 0.086337 86
0.190622 3.201326 -0.585470 100
0.093054 3.348903 -0.109967 68
-0.013745 3.433520 0.210606 48
-0.114190 3.188029 -0.338668 100
-0.221767 3.276278 -0.038401 89
-0.336252 3.375751 0.280103 71
-0.416370 3.165052 -0.221549 100
0.320556 3.506539 0.141424 18
0.197141 3.301444 -0.370391 99
0.093765 3.354178 -0.058570 80
-0.114535 3.212776 -0.291440 100
-0.223654 3.312436 0.012168 82
-0.414671 3.156241 -0.171848 100
0.200654 3.350795 -0.220016 76
0.095767 3.405258 0.097535 65
-0.011696 3.189786 -0.468300 97
-0.116333 3.278710 -0.145537 78
-0.226044 3.356231 0.167462 45
-0.314464 3.167822 -0.325603 89
-0.423576 3.228230 -0.025572 77
0.201875 3.361715 -0.168836 94
0.097529 3.447282 0.151778 64
-0.011339 3.241096 -0.350381 88
-0.116129 3.288569 -0.095364 68
-0.227688 3.389150 0.221447 52
-0.315174 3.180408 -0.277364 100
-0.426672 3.256071 0.024646 74
0.296528 3.209442 -0.669939 100
0.204613 3.371759 -0.117371 89
0.099971 3.456457 0.205437 83
-0.009251 3.226187 -0.298718 78
-0.114646 3.305706 -0.045032 65
-0.226092 3.397434 0.274554 61
-0.313157 3.180500 -0.227962 93
-0.423485 3.247649 0.074895 64
0.306228 3.308362 -0.378552 101
0.206966 3.401069 -0.066020 90
-0.008752 3.242360 -0.250056 67
-0.115205 3.338007 0.005829 65
-0.313709 3.191611 -0.179299 81
-0.427902 3.285833 0.126716 84
0.311017 3.353952 -0.227268 90
0.210913 3.456336 0.092490 79
0.094223 3.220233 -0.524326 101
-0.008389 3.314407 -0.102423 60
-0.116843 3.402098 0.162915 57
-0.210270 3.175807 -0.331714 101
-0.320286 3.264168 -0.032058 63
0.314454 3.384822 -0.176965 89
0.213335 3.486387 0.147007 78
0.096722 3.286726 -0.361853 100
-0.007891 3.339588 -0.051880 59
-0.117808 3.447092 0.218208 60
-0.211360 3.200430 -0.284560 79
-0.321307 3.280250 0.018408 58
0.322117 3.460981 -0.020627 81
0.098255 3.319833 -0.211286 81
-0.007423 3.382414 0.103342 56
-0.115822 3.405748 -1.589045 16
-0.213823 3.246037 -0.138050 78
-0.326552 3.339590 0.173506 74
-0.408553 3.149664 -0.318692 100
0.323804 3.472782 0.032873 82
0.099730 3.350623 -0.161600 68
-0.006948 3.428378 0.157481 49
-0.106992 3.161781 -0.424923 101
-0.214964 3.271745 -0.088722 56
-0.328407 3.364403 0.226896 61
-0.410140 3.166073 -0.270890 101
0.204483 3.314284 -0.320321 100
0.101368 3.386476 -0.007096 63
-0.108591 3.225063 -0.242631 69
-0.217592 3.320276 0.063308 72
-0.296770 3.045588 -0.879873 54
-0.411799 3.183084 -0.123862 92
0.207782 3.358562 -0.272514 95
0.101929 3.386168 0.044939 57
-0.110968 3.312229 -0.198054 91
-0.220073 3.366820 0.116054 56
-0.307983 3.166185 -0.382143 94
-0.414021 3.204494 -0.075017 71
0.313982 3.337072 -0.329829 92
0.212900 3.413339 -0.013729 98
-0.003876 3.269782 -0.201707 61
-0.110662 3.353684 0.057399 69
-0.208061 3.207919 -1.143551 32
-0.311030 3.214338 -0.130833 84
-0.425177 3.303967 0.178663 70
0.314234 3.333732 -0.277651 85
0.215709 3.449039 0.039206 83
-0.003361 3.304461 -0.152945 74
-0.110581 3.368409 0.109446 70
-0.204968 3.168493 -0.398296 101
-0.313337 3.243872 -0.081924 82
-0.428800 3.336549 0.232283 74
0.320924 3.398587 -0.125175 84
0.101735 3.287763 -0.310934 70
-0.002866 3.375999 -0.000589 56
-0.112336 3.439525 0.270841 47
-0.208055 3.224635 -0.236728 84
-0.317811 3.295987 0.069361 64
-0.388574 3.027574 -0.736482 101
0.323898 3.423934 -0.073242 75
0.102672 3.300102 -0.261009 89
-0.002303 3.383609 0.051382 59
-0.208235 3.235888 -0.187534 74
-0.319032 3.314486 0.120935 60
-0.402071 3.136916 -0.368720 101
0.330107 3.483318 0.086734 100
0.202538 3.212423 -0.587625 100
0.105118 3.360546 -0.110360 77
-0.001774 3.461494 0.212320 53
-0.103061 3.188408 -0.338668 100
-0.211097 3.289007 -0.038542 78
-0.324848 3.380872 0.280432 75
-0.406839 3.178360 -0.222380 98
0.328639 3.461631 0.139659 4
0.208915 3.304703 -0.370837 91
0.105976 3.369820 -0.058850 81
-0.103960 3.233064 -0.293245 82
-0.212601 3.321180 0.012198 75
-0.404664 3.165594 -0.172279 100
0.212349 3.350074 -0.220016 81
0.107779 3.408899 0.097650 57
-0.000561 3.185850 -0.467719 88
-0.105271 3.291079 -0.146068 90
-0.213564 3.345038 0.166865 43
-0.303784 3.172861 -0.326010 100
-0.412305 3.229688 -0.025572 88
0.214369 3.372950 -0.169437 87
0.109689 3.450915 0.151954 56
-0.000025 3.245093 -0.350811 83
-0.105158 3.304939 -0.095828 67
-0.216871 3.405858 0.222487 48
-0.304828 3.189423 -0.278056 90
-0.415810 3.261508 0.024676 87
0.309598 3.227879 -0.674009 100
0.216637 3.375013 -0.117510 96
0.111389 3.436133 0.204251 56
0.002013 3.230183 -0.299086 78
-0.103356 3.314081 -0.045141 79
-0.214482 3.402182 0.274875 61
-0.301676 3.177602 -0.227678 79
-0.414662 3.268944 0.075353 80
0.318155 3.311229 -0.379004 101
0.219607 3.412299 -0.066252 86
0.002581 3.262312 -0.251594 69
-0.103552 3.338389 0.005829 71
-0.303320 3.200639 -0.179745 77
-0.415425 3.279376 0.126410 58
0.323105 3.356818 -0.227537 91
0.223491 3.463559 0.092704 75
0.105851 3.231722 -0.526254 101
0.003180 3.314416 -0.102423 59
-0.104598 3.390504 0.162342 66
-0.199681 3.184463 -0.332543 100
-0.308513 3.261284 -0.032019 65
-0.421706 3.333457 0.283921 3
0.325884 3.379727 -0.176757 100
0.225246 3.481633 0.146839 91
0.107802 3.274447 -0.360541 100
0.003771 3.343595 -0.051942 55
-0.105285 3.431522 0.217198 62
-0.199689 3.193195 -0.283853 100
-0.309479 3.277369 0.018386 66
0.334965 3.467798 -0.020674 78
0.110767 3.347398 -0.213063 69
0.004389 3.386417 0.103464 60
-0.202740 3.250752 -0.138220 78
-0.315642 3.348663 0.173919 74
-0.397556 3.151071 -0.318692 100
0.335539 3.467649 0.032835 82
0.111691 3.358241 -0.161985 64
0.005014 3.424386 0.157297 61
-0.095835 3.158172 -0.424391 100
-0.203294 3.268485 -0.088614 59
-0.316661 3.365529 0.226896 60
-0.399085 3.167486 -0.270890 101
0.216051 3.313550 -0.320321 100
0.113322 3.390099 -0.007104 61
-0.097212 3.221436 -0.242331 78
-0.206743 3.332990 0.063537 61
-0.285058 3.035123 -0.876557 60
-0.402182 3.196399 -0.124325 100
0.219244 3.353838 -0.272191 93
0.114285 3.401781 0.045151 57
-0.099405 3.312596 -0.198054 89
-0.208319 3.367568 0.116054 51
-0.297671 3.175149 -0.383097 94
-0.404827 3.221791 -0.075389 71
0.325629 3.335956 -0.329829 97
0.225339 3.420558 -0.013761 95
0.007538 3.269776 -0.201707 69
-0.098837 3.350052 0.057331 71
-0.197323 3.216149 -1.146232 31
-0.299437 3.211424 -0.130671 76
-0.415130 3.317321 0.179305 70
0.327420 3.348484 -0.278973 81
0.227484 3.444274 0.039161 87
0.008164 3.300457 -0.152760 79
-0.099174 3.380763 0.109836 70
-0.193907 3.169189 -0.398296 101
-0.302753 3.252909 -0.082125 80
-0.416655 3.334066 0.232008 67
0.333564 3.405403 -0.125468 90
0.113622 3.299328 -0.312063 78
0.008929 3.379988 -0.000590 56
-0.100794 3.455840 0.272096 50
-0.197041 3.229324 -0.237020 100
-0.307044 3.305040 0.069529 71
-0.379929 3.044346 -0.740235 101
0.337020 3.434723 -0.073498 79
0.114329 3.303709 -0.261324 69
0.009530 3.391596 0.051503 65
-0.197423 3.244567 -0.187996 82
-0.308198 3.323540 0.121225 62
-0.391610 3.142243 -0.369183 101
0.343438 3.494084 0.087031 100
0.213489 3.207770 -0.586907 100
0.117126 3.368149 -0.110623 73
0.010297 3.457487 0.212076 46
-0.092618 3.212605 -0.341202 101
-0.200100 3.297709 -0.038635 82
-0.313779 3.389924 0.281090 81
-0.396728 3.187680 -0.222934 100
0.220978 3.311886 -0.371727 91
0.118157 3.381421 -0.059059 74
-0.092902 3.241371 -0.293968 100
-0.201732 3.333880 0.012242 71
-0.394597 3.174914 -0.172710 99
0.224574 3.357278 -0.220539 80
0.120239 3.424486 0.098108 55
0.010573 3.189790 -0.468300 95
-0.094124 3.303409 -0.146600 94
-0.203330 3.369690 0.168058 50
-0.293072 3.177865 -0.326417 93
-0.404478 3.258894 -0.025792 81
0.225606 3.364209 -0.169036 90
0.122157 3.462492 0.152481 56
0.011344 3.257004 -0.352101 90
-0.093734 3.309283 -0.095943 70
-0.204742 3.402610 0.222227 46
-0.293328 3.186500 -0.277710 93
-0.404422 3.262940 0.024676 81
0.320864 3.226779 -0.674009 100
0.228957 3.382214 -0.117787 89
0.123812 3.447694 0.204963 58
0.013288 3.230156 -0.299086 68
-0.091676 3.310424 -0.045087 65
-0.203316 3.414850 0.275840 62
-0.290945 3.182609 -0.227962 87
-0.405206 3.286247 0.075718 89
0.330893 3.321962 -0.380363 101
0.230975 3.403531 -0.066097 88
0.013969 3.262283 -0.251594 62
-0.092118 3.346727 0.005843 72
-0.291782 3.197701 -0.179522 85
-0.402998 3.272872 0.126104 66
0.335217 3.359641 -0.227807 96
0.235580 3.462758 0.092704 88
0.117131 3.231333 -0.526254 101
0.014785 3.322381 -0.102670 57
-0.092653 3.386855 0.162150 69
-0.188094 3.177198 -0.331714 101
-0.297490 3.266324 -0.032058 74
-0.412500 3.354689 0.285605 54
0.339269 3.394468 -0.177589 94
0.238213 3.492787 0.147343 89
0.119231 3.274051 -0.360541 95
0.015405 3.335562 -0.051817 61
-0.093415 3.435859 0.217450 53
-0.188777 3.197850 -0.284207 91
-0.299485 3.294363 0.018475 76
0.346669 3.462628 -0.020651 83
0.122159 3.339012 -0.212555 70
0.016267 3.398375 0.103831 71
-0.190922 3.243461 -0.137881 69
-0.303591 3.345766 0.173713 64
-0.386070 3.148489 -0.318292 100
0.348041 3.470437 0.032873 84
0.123120 3.349845 -0.161600 70
0.016908 3.412360 0.156747 56
-0.085236 3.174340 -0.426521 101
-0.191883 3.269175 -0.088614 57
-0.304551 3.362639 0.226628 62
-0.388995 3.176772 -0.271566 101
0.227616 3.312776 -0.320321 100
0.125155 3.389683 -0.007104 52
-0.085647 3.209794 -0.241432 81
-0.195341 3.337683 0.063613 67
-0.273078 3.020786 -0.872135 67
-0.390537 3.193816 -0.124170 90
0.230402 3.345097 -0.271545 95
0.125714 3.389371 0.044992 57
-0.087312 3.292966 -0.196861 71
-0.196330 3.364283 0.115917 53
-0.283730 3.144526 -0.379280 97
-0.391639 3.207307 -0.075017 82
0.337271 3.334799 -0.329829 88
0.236724 3.411770 -0.013729 95
0.018905 3.261745 -0.201215 67
-0.087143 3.350377 0.057331 75
-0.186095 3.216818 -1.146232 32
-0.287153 3.200508 -0.130186 78
-0.404512 3.326680 0.179734 62
0.339509 3.351287 -0.279304 75
0.241448 3.471389 0.039478 80
0.019661 3.296412 -0.152575 79
-0.087372 3.381088 0.109836 51
-0.182843 3.169847 -0.398296 101
-0.291396 3.253947 -0.082125 83
-0.406939 3.351346 0.233110 78
0.346256 3.412172 -0.125761 100
0.125289 3.302890 -0.312440 82
0.020776 3.387936 -0.000591 57
-0.088628 3.452184 0.271782 36
-0.185996 3.233975 -0.237312 100
-0.295505 3.306092 0.069529 74
-0.369300 3.045654 -0.740235 101
0.349411 3.437504 -0.073583 86
0.126316 3.315244 -0.262270 84
0.021445 3.403540 0.051686 71
-0.185868 3.241250 -0.187765 86
-0.296595 3.324596 0.121225 76
-0.381117 3.147535 -0.369646 101
0.356847 3.504798 0.087329 101
0.226335 3.230557 -0.591217 100
0.129188 3.375710 -0.110885 70
0.022443 3.469407 0.212810 49
-0.081202 3.204955 -0.340357 100
-0.189044 3.306374 -0.038729 82
-0.302651 3.398940 0.281749 79
-0.386557 3.196969 -0.223488 100
0.233652 3.326956 -0.373508 100
0.129653 3.372995 -0.058919 74
-0.081286 3.229729 -0.292884 100
-0.189865 3.330570 0.012227 76
-0.383512 3.176272 -0.172710 93
0.236572 3.360455 -0.220801 76
0.132192 3.424045 0.098108 55
0.021707 3.189734 -0.468300 97
-0.082492 3.299723 -0.146423 92
-0.191566 3.370380 0.168058 41
-0.281626 3.174905 -0.326010 100
-0.392621 3.256315 -0.025761 83
0.237630 3.367386 -0.169237 87
0.134087 3.458051 0.152306 53
0.022602 3.241037 -0.350381 79
-0.081983 3.301596 -0.095712 71
-0.192637 3.399318 0.221967 45
-0.281852 3.183535 -0.277364 93
-0.393508 3.268303 0.024706 81
0.330529 3.210056 -0.670753 100
0.240203 3.373418 -0.117510 96
0.136327 3.459210 0.205674 19
0.024572 3.230090 -0.299086 75
-0.080305 3.318721 -0.045196 65
-0.191163 3.411558 0.275518 61
-0.280175 3.187581 -0.228247 90
-0.393724 3.287642 0.075718 83
0.341677 3.312880 -0.379457 101
0.244284 3.422649 -0.066485 84
0.025393 3.266202 -0.251902 71
-0.080526 3.351027 0.005850 70
-0.280962 3.202679 -0.179745 70
-0.392515 3.282197 0.126410 74
0.348995 3.378299 -0.229153 100
0.248809 3.477868 0.093131 84
0.128725 3.238794 -0.527539 101
0.026543 3.342299 -0.103288 62
-0.081495 3.415118 0.163489 63
-0.177664 3.189752 -0.332958 100
-0.287829 3.287266 -0.032253 63
-0.398895 3.340278 0.284258 59
0.351114 3.393264 -0.177589 98
0.250974 3.499907 0.147680 79
0.130975 3.281561 -0.361416 100
0.027177 3.351485 -0.052066 54
-0.081517 3.440155 0.217703 62
-0.178056 3.206446 -0.284914 95
-0.287985 3.295389 0.018475 68
0.359986 3.473333 -0.020722 90
0.133969 3.342554 -0.212809 74
0.028224 3.410292 0.104197 71
-0.180266 3.256079 -0.138390 74
-0.293303 3.362724 0.174539 71
-0.375081 3.149817 -0.318292 101
0.362622 3.493072 0.033099 84
0.135125 3.357380 -0.161985 68
0.028980 3.432258 0.157664 61
-0.074070 3.170654 -0.425988 101
-0.181580 3.289787 -0.089155 56
-0.293512 3.371633 0.227164 60
-0.376970 3.170194 -0.270890 101
0.240027 3.323875 -0.321473 100
0.137298 3.397219 -0.007121 54
-0.074916 3.230011 -0.242931 78
-0.184140 3.346331 0.063765 58
-0.262542 3.021719 -0.872135 79
-0.379868 3.199128 -0.124325 96
0.243214 3.360180 -0.272836 100
0.137530 3.388912 0.044992 62
-0.076199 3.309217 -0.197815 84
-0.185476 3.380914 0.116467 53
-0.273452 3.153409 -0.380234 97
-0.381868 3.220566 -0.075296 80
0.348471 3.329645 -0.329437 96
0.249770 3.426882 -0.013793 93
0.030452 3.281620 -0.202446 70
-0.075652 3.358657 0.057467 71
-0.175299 3.224973 -1.148913 32
-0.276347 3.205471 -0.130347 72
-0.392922 3.328069 0.179734 62
0.349514 3.334226 -0.277982 83
0.251786 3.446593 0.039206 87
0.031064 3.288333 -0.152205 76
-0.075509 3.377375 0.109706 67
-0.172019 3.174428 -0.398794 100
-0.279035 3.242990 -0.081824 88
-0.396201 3.360668 0.233661 77
0.358968 3.418896 -0.126054 82
0.137445 3.318349 -0.313945 68
0.032686 3.399843 -0.000593 57
-0.076699 3.456459 0.272096 35
-0.174522 3.230619 -0.237020 75
-0.284336 3.311085 0.069613 69
-0.358695 3.046921 -0.740235 101
0.361372 3.436267 -0.073583 86
0.137356 3.302832 -0.261324 69
0.033290 3.403445 0.051686 62
-0.174157 3.233902 -0.187303 71
-0.286730 3.345521 0.121951 62
-0.369696 3.144896 -0.369183 101
0.368201 3.495582 0.087130 100
0.236419 3.214052 -0.588344 100
0.140599 3.367251 -0.110623 70
0.034554 3.473300 0.213055 46
-0.070573 3.229079 -0.342891 101
-0.177539 3.307011 -0.038729 87
-0.289805 3.388057 0.280761 86
-0.374966 3.194331 -0.223211 100
0.244930 3.322159 -0.373062 95
0.142054 3.388507 -0.059199 72
-0.070311 3.241940 -0.293968 96
-0.178708 3.339199 0.012256 69
-0.373392 3.185521 -0.173141 93
0.248550 3.363592 -0.221063 74
0.144097 3.423565 0.098108 59
0.032717 3.181724 -0.467138 99
-0.070932 3.295995 -0.146246 94
-0.179633 3.367036 0.167859 55
-0.271598 3.187759 -0.327231 100
-0.381296 3.257660 -0.025761 79
0.250219 3.378492 -0.169837 74
0.146613 3.469542 0.152833 54
0.033910 3.244916 -0.350811 76
-0.070848 3.317850 -0.096175 74
-0.181879 3.419897 0.223268 46
-0.271459 3.192436 -0.278056 79
-0.383073 3.277597 0.024766 89
0.343392 3.224459 -0.674009 100
0.252573 3.380532 -0.117787 87
0.035847 3.229984 -0.299086 70
-0.068720 3.318981 -0.045196 63
-0.179462 3.416186 0.275840 60
-0.270053 3.200466 -0.229101 93
-0.382707 3.292969 0.075810 80
0.353660 3.315619 -0.379910 100
0.256229 3.421776 -0.066485 82
0.036884 3.274070 -0.252517 73
-0.068746 3.347289 0.005843 67
-0.270451 3.211599 -0.180192 92
-0.381977 3.291488 0.126716 79
0.362057 3.388966 -0.229961 100
0.261846 3.488940 0.093451 82
0.139348 3.222548 -0.524969 100
0.038073 3.330193 -0.102917 66
-0.069655 3.419376 0.163680 59
-0.166529 3.190353 -0.332958 100
-0.276018 3.284264 -0.032214 65
-0.391820 3.381243 0.287626 71
0.363382 3.395989 -0.177797 98
0.263789 3.506980 0.148016 79
0.142601 3.285056 -0.361853 95
0.039061 3.367367 -0.052314 54
-0.069830 3.456383 0.218713 61
-0.166862 3.207048 -0.284914 79
-0.277149 3.304346 0.018520 64
0.372961 3.480010 -0.020769 87
0.145809 3.346054 -0.213063 69
0.040175 3.414170 0.104320 62
-0.169313 3.264670 -0.138729 82
-0.280230 3.347804 0.173713 72
-0.364541 3.155061 -0.318692 100
0.373960 3.483831 0.033024 77
0.146320 3.344913 -0.161407 78
0.040960 3.432136 0.157664 59
-0.062765 3.159003 -0.424391 101
-0.169477 3.278421 -0.088830 62
-0.282405 3.380592 0.227700 68
-0.364988 3.163571 -0.270214 101
0.252230 3.330957 -0.322241 100
0.149155 3.396719 -0.007121 58
-0.063484 3.222277 -0.242331 78
-0.171841 3.334971 0.063537 65
-0.251034 3.011125 -0.868819 82
-0.368242 3.196464 -0.124170 94
0.254036 3.347384 -0.271868 95
0.150239 3.408390 0.045257 52
-0.064648 3.309463 -0.197815 71
-0.174288 3.393518 0.116879 53
-0.262443 3.154345 -0.380234 97
-0.371081 3.225852 -0.075389 71
0.360948 3.336323 -0.330221 92
0.261730 3.425989 -0.013793 86
0.041754 3.269518 -0.201707 63
-0.063928 3.358900 0.057467 71
-0.163657 3.218038 -1.146232 26
-0.265156 3.206416 -0.130347 78
-0.379030 3.309579 0.178663 69
0.361580 3.336949 -0.278312 84
0.265037 3.461645 0.039388 95
0.042645 3.296195 -0.152575 71
-0.064021 3.393607 0.110225 65
-0.160736 3.171045 -0.398296 101
-0.268371 3.251914 -0.082025 80
-0.385828 3.373925 0.234488 66
0.370037 3.409675 -0.125761 82
0.149028 3.317849 -0.313945 68
0.044501 3.395708 -0.000593 64
-0.064782 3.464679 0.272724 33
-0.163445 3.235193 -0.237312 78
-0.272448 3.308072 0.069529 67
-0.348058 3.048154 -0.740235 101
0.374661 3.446912 -0.073839 84
0.149423 3.314283 -0.262270 74
0.045170 3.403308 0.051686 67
-0.163470 3.246455 -0.187996 82
-0.273413 3.326582 0.121225 68
-0.359166 3.150115 -0.369646 101
0.382132 3.510176 0.087527 100
0.248544 3.224978 -0.590499 101
0.153075 3.382715 -0.111148 72
0.046892 3.489127 0.214035 45
-0.058789 3.201467 -0.339935 100
-0.166596 3.319595 -0.038869 78
-0.279606 3.408913 0.282407 86
-0.364716 3.203550 -0.223765 100
0.255912 3.313357 -0.372172 91
0.153518 3.380000 -0.059059 79
-0.058849 3.234200 -0.293245 100
-0.166451 3.327817 0.012212 69
-0.362270 3.186805 -0.173141 90
0.260598 3.366684 -0.221324 75
0.156229 3.427035 0.098222 52
0.044041 3.197419 -0.469462 90
-0.059499 3.300218 -0.146423 79
-0.168873 3.387593 0.168854 46
-0.260469 3.188688 -0.327231 98
-0.372177 3.278843 -0.025918 83
0.262628 3.385564 -0.170238 83
0.158906 3.473001 0.153009 61
0.045292 3.248754 -0.351241 83
-0.059337 3.322075 -0.096291 63
-0.169346 3.408551 0.222487 50
-0.260314 3.193365 -0.278056 93
-0.371630 3.278914 0.024766 81
0.353788 3.215456 -0.672381 90
0.264683 3.383615 -0.117926 92
0.047238 3.237805 -0.299824 63
-0.057410 3.335197 -0.045413 63
-0.167536 3.416792 0.275840 59
-0.258880 3.201389 -0.229101 84
-0.371658 3.298259 0.075901 75
0.366102 3.322265 -0.380816 101
0.268172 3.420861 -0.066485 89
0.048489 3.285884 -0.253439 67
-0.057539 3.375504 0.005892 59
-0.259560 3.216505 -0.180415 75
-0.372273 3.308689 0.127327 81
0.371695 3.367847 -0.228615 96
0.273709 3.484019 0.093344 76
0.151333 3.237817 -0.527539 100
0.049816 3.338035 -0.103164 62
-0.057651 3.415604 0.163489 59
-0.155585 3.194888 -0.333372 100
-0.264231 3.281221 -0.032175 63
-0.381350 3.394473 0.288636 76
0.374795 3.390730 -0.177589 85
0.276029 3.506037 0.148016 72
0.154067 3.284538 -0.361853 100
0.050755 3.363211 -0.052252 51
-0.057565 3.444631 0.217955 62
-0.155860 3.211591 -0.285267 85
-0.264331 3.289345 0.018431 68
0.385546 3.482662 -0.020793 87
0.157489 3.345525 -0.213063 74
0.052153 3.418007 0.104442 71
-0.157144 3.249274 -0.138050 82
-0.268862 3.352744 0.173919 69
-0.354412 3.164225 -0.319490 100
0.387440 3.494431 0.033137 82
0.159126 3.368327 -0.162563 74
0.053064 3.439963 0.158032 53
-0.052063 3.179022 -0.427053 101
-0.158609 3.290974 -0.089155 53
-0.269967 3.373600 0.227164 60
-0.354829 3.172748 -0.270890 100
0.263541 3.326087 -0.321857 100
0.161011 3.396178 -0.007121 56
-0.052171 3.218491 -0.242031 83
-0.160582 3.343540 0.063689 69
-0.240522 3.011982 -0.868819 101
-0.356638 3.193757 -0.124016 83
0.266351 3.354425 -0.272514 100
0.161755 3.399855 0.045151 52
-0.053287 3.321646 -0.198531 74
-0.162060 3.386119 0.116604 47
-0.251746 3.159200 -0.380711 97
-0.358932 3.219179 -0.075203 75
0.374359 3.350868 -0.331788 88
0.274006 3.429042 -0.013809 98
0.053361 3.281328 -0.202446 70
-0.052327 3.367101 0.057604 67
-0.152602 3.222354 -1.147573 25
-0.253962 3.207322 -0.130347 74
-0.368356 3.318821 0.179091 72
0.374556 3.347551 -0.279304 80
0.277757 3.468673 0.039478 74
0.054282 3.304017 -0.152945 64
-0.051867 3.373823 0.109576 70
-0.149853 3.175551 -0.398794 101
-0.257018 3.252831 -0.082025 86
-0.370971 3.347487 0.232559 65
0.381492 3.404390 -0.125615 79
0.160415 3.313331 -0.313569 79
0.056354 3.395532 -0.000593 61
-0.052627 3.460897 0.272410 18
-0.152339 3.239728 -0.237605 81
-0.261842 3.320963 0.069780 71
-0.337415 3.049351 -0.740235 101
0.388029 3.457505 -0.074094 76
0.161184 3.317724 -0.262585 82
0.057384 3.423124 0.051989 65
-0.151576 3.235039 -0.187303 78
-0.263053 3.343457 0.121806 68
-0.348168 3.151350 -0.369646 101
0.394829 3.512795 0.087626 100
0.261064 3.239779 -0.593372 100
0.164298 3.370180 -0.110754 76
0.058936 3.480958 0.213545 49
-0.047732 3.209607 -0.340780 100
-0.154635 3.312165 -0.038775 83
-0.266769 3.397946 0.281419 85
-0.352657 3.196871 -0.223211 100
0.268117 3.320368 -0.373062 97
0.165902 3.391428 -0.059268 73
-0.047677 3.242352 -0.293968 100
-0.155020 3.332374 0.012227 67
-0.351581 3.192020 -0.173357 81
0.272026 3.361775 -0.221063 72
0.168386 3.430462 0.098337 59
0.055339 3.205160 -0.470624 93
-0.047920 3.296410 -0.146246 79
-0.157047 3.388162 0.168854 52
-0.248406 3.177676 -0.326010 93
-0.358106 3.256267 -0.025729 80
0.273799 3.376663 -0.169837 87
0.171028 3.472425 0.153009 57
0.056562 3.244600 -0.350811 74
-0.047740 3.322262 -0.096291 74
-0.158000 3.421083 0.223268 52
-0.249475 3.198227 -0.278402 96
-0.359746 3.276215 0.024736 83
0.366769 3.229767 -0.675637 101
0.276809 3.386656 -0.118065 100
0.058675 3.245585 -0.300562 69
-0.045831 3.339376 -0.045468 63
-0.156343 3.433287 0.277126 59
-0.247712 3.202273 -0.229101 90
-0.360152 3.299535 0.075901 80
0.377692 3.320967 -0.380816 101
0.280106 3.419904 -0.066485 97
0.059953 3.285695 -0.253439 64
-0.045653 3.367686 0.005878 63
-0.248029 3.213409 -0.180192 85
-0.359861 3.302021 0.127021 88
0.385254 3.382390 -0.229692 99
0.285867 3.483042 0.093344 84
0.162632 3.237269 -0.527539 100
0.061613 3.345835 -0.103411 59
-0.045837 3.423774 0.163871 64
-0.144434 3.195412 -0.333372 101
-0.253699 3.294087 -0.032292 68
-0.366483 3.368046 0.286279 71
0.387988 3.401307 -0.178213 92
0.288922 3.513019 0.148353 49
0.165733 3.287951 -0.362291 100
0.062421 3.359015 -0.052190 55
-0.045645 3.452795 0.218461 61
-0.145006 3.220076 -0.285974 93
-0.253459 3.298224 0.018475 68
0.397251 3.477321 -0.020769 91
0.169372 3.348942 -0.213317 65
0.064239 3.425799 0.104686 71
-0.146513 3.265773 -0.138729 89
-0.257458 3.357645 0.174126 66
-0.342072 3.153573 -0.318292 100
0.399644 3.493056 0.033137 77
0.170081 3.351790 -0.161792 81
0.065004 3.435762 0.157848 53
-0.040907 3.175220 -0.426521 101
-0.146220 3.271535 -0.088614 54
-0.259399 3.390440 0.228235 60
-0.343315 3.170006 -0.270552 101
0.276474 3.341018 -0.323394 100
0.173080 3.399590 -0.007129 56
-0.041229 3.242584 -0.243831 71
-0.148899 3.344081 0.063689 73
-0.229996 3.012805 -0.868819 101
-0.345477 3.194984 -0.124016 87
0.278732 3.361421 -0.273159 93
0.173841 3.403263 0.045204 52
-0.041678 3.321812 -0.198531 71
-0.150578 3.394652 0.116879 51
-0.241005 3.164021 -0.381188 97
-0.349825 3.240293 -0.075667 75
0.386079 3.349538 -0.331788 90
0.286332 3.432049 -0.013825 87
0.064918 3.285113 -0.202692 70
-0.040404 3.355266 0.057399 66
-0.141659 3.230398 -1.150254 8
-0.242439 3.204205 -0.130186 67
-0.356744 3.320090 0.179091 75
0.386724 3.350180 -0.279634 95
0.289559 3.463694 0.039433 88
0.065684 3.295816 -0.152575 79
-0.040204 3.385976 0.109966 63
-0.138914 3.180021 -0.399291 101
-0.245634 3.253711 -0.082025 75
-0.359256 3.348765 0.232559 73
0.394323 3.410975 -0.125908 87
0.172424 3.320704 -0.314322 81
0.068238 3.395314 -0.000593 61
-0.040466 3.457072 0.272096 15
-0.141345 3.248213 -0.238189 85
-0.250518 3.325847 0.069864 74
-0.327569 3.058246 -0.742111 101
0.399672 3.452153 -0.074009 74
0.173629 3.333068 -0.263846 80
0.068882 3.398910 0.051625 71
-0.141113 3.255498 -0.188458 78
-0.251047 3.340371 0.121660 73
-0.338400 3.164401 -0.371036 101
0.406208 3.503446 0.087428 100
0.272408 3.238845 -0.593372 101
0.176308 3.373577 -0.110885 73
0.071290 3.488714 0.214035 50
-0.036582 3.217709 -0.341624 101
-0.143034 3.312687 -0.038775 80
-0.255165 3.402835 0.281749 91
-0.341459 3.198087 -0.223211 86
0.280748 3.331291 -0.374398 80
0.177572 3.386832 -0.059199 72
-0.036407 3.250466 -0.294690 97
-0.143689 3.340889 0.012256 71
-0.340820 3.197204 -0.173573 90
0.284140 3.364779 -0.221324 75
0.181036 3.441830 0.098680 60
0.066734 3.212860 -0.471786 96
-0.036413 3.300553 -0.146423 68
-0.145174 3.388691 0.168854 51
-0.238159 3.190432 -0.327231 98
-0.348810 3.277389 -0.025886 75
0.285970 3.379663 -0.170038 78
0.183198 3.471805 0.153009 54
0.068018 3.248358 -0.351241 70
-0.036052 3.318411 -0.096175 67
-0.146007 3.421616 0.223268 48
-0.237375 3.187160 -0.277364 88
-0.348683 3.281434 0.024766 79
0.377585 3.224577 -0.674823 97
0.288969 3.389652 -0.118204 95
0.070004 3.245360 -0.300562 72
-0.034174 3.339516 -0.045468 70
-0.144190 3.429829 0.276804 50
-0.236532 3.203118 -0.229101 81
-0.347372 3.288841 0.075627 85
0.390207 3.327523 -0.381721 101
0.292723 3.426875 -0.066639 82
0.071335 3.281478 -0.253132 73
-0.033857 3.363825 0.005871 69
-0.238278 3.234170 -0.181308 86
-0.348332 3.303257 0.127021 81
0.398920 3.396880 -0.230769 96
0.298705 3.489991 0.093558 85
0.174779 3.252451 -0.530109 101
0.073380 3.349597 -0.103535 64
-0.034044 3.439894 0.164636 60
-0.133942 3.211797 -0.335031 100
-0.242785 3.302931 -0.032370 66
-0.352638 3.349485 0.284595 65
0.400791 3.407866 -0.178629 92
0.301525 3.515970 0.148521 45
0.177423 3.291323 -0.362728 100
0.074234 3.362775 -0.052252 59
-0.033708 3.464909 0.219218 65
-0.133930 3.224543 -0.286328 76
-0.243115 3.315045 0.018565 64
0.409387 3.475913 -0.020769 91
0.181276 3.352316 -0.213571 70
0.076019 3.417560 0.104442 71
-0.135608 3.278243 -0.139238 82
-0.247193 3.378443 0.175159 69
-0.331478 3.158706 -0.318692 100
0.412303 3.495612 0.033175 92
0.182429 3.363144 -0.162370 64
0.077175 3.443503 0.158215 56
-0.029935 3.187236 -0.428118 101
-0.135622 3.292001 -0.089155 53
-0.248143 3.399286 0.228771 61
-0.333909 3.187041 -0.271904 101
0.287793 3.336066 -0.323010 93
0.184729 3.394970 -0.007121 54
-0.029837 3.234731 -0.243231 76
-0.137225 3.344580 0.063689 71
-0.219757 3.017423 -0.869924 101
-0.335154 3.204121 -0.124325 87
0.291150 3.368371 -0.273805 100
0.185720 3.402636 0.045204 55
-0.030046 3.317944 -0.198293 73
-0.138401 3.387169 0.116604 53
-0.230534 3.172765 -0.382143 94
-0.336850 3.225585 -0.075296 80
0.397768 3.348170 -0.331788 100
0.296925 3.415089 -0.013761 84
0.076477 3.288857 -0.202939 79
-0.028691 3.355386 0.057399 71
-0.130990 3.245935 -1.155617 10
-0.232403 3.220977 -0.130833 76
-0.344327 3.313369 0.178663 81
0.399829 3.360685 -0.280626 86
0.302689 3.474616 0.039569 77
0.077469 3.307551 -0.153129 74
-0.028351 3.382098 0.109836 65
-0.127494 3.172555 -0.398296 101
-0.233701 3.246571 -0.081824 70
-0.347152 3.346030 0.232283 74
0.406700 3.413547 -0.126054 78
0.184676 3.332010 -0.315451 72
0.080090 3.395056 -0.000593 64
-0.129527 3.236728 -0.237312 87
-0.237474 3.306756 0.069445 76
-0.315689 3.047767 -0.739296 101
0.411720 3.450737 -0.074009 74
0.183713 3.304572 -0.261640 72
0.081031 3.410644 0.051807 61
-0.129113 3.240010 -0.187534 71
-0.239385 3.341227 0.121660 71
-0.326126 3.153707 -0.369646 101
0.419858 3.513919 0.087725 101
0.284056 3.241795 -0.594091 101
0.187860 3.368949 -0.110754 73
0.083276 3.480461 0.213545 38
-0.025412 3.225772 -0.342469 100
-0.131628 3.317163 -0.038822 75
-0.243854 3.411657 0.282407 93
-0.330293 3.199259 -0.223211 100
0.292722 3.334251 -0.374843 98
0.189617 3.390184 -0.059268 63
-0.025061 3.250573 -0.294690 94
-0.132184 3.345367 0.012271 64
-0.328839 3.190428 -0.173141 83
0.295884 3.363766 -0.221324 71
0.192601 3.433193 0.098451 59
0.077757 3.204695 -0.470624 91
-0.024892 3.300660 -0.146423 74
-0.132716 3.373210 0.168058 52
-0.226173 3.179336 -0.326010 89
-0.335730 3.262671 -0.025761 69
0.299168 3.394563 -0.170839 77
0.195990 3.483113 0.153537 56
0.079551 3.256052 -0.352101 70
-0.024468 3.318516 -0.096175 68
-0.134532 3.434070 0.224049 51
-0.226813 3.195919 -0.278056 90
-0.337635 3.286610 0.024796 80
0.391653 3.246568 -0.679707 100
0.302213 3.404550 -0.118760 88
0.081531 3.253059 -0.301299 63
-0.022544 3.343614 -0.045522 79
-0.132217 3.430311 0.276804 60
-0.225909 3.211884 -0.229670 90
-0.337514 3.305947 0.075993 83
0.402297 3.330086 -0.382174 101
0.305391 3.433800 -0.066794 85
0.082890 3.285196 -0.253439 79
-0.022194 3.375922 0.005892 64
-0.226428 3.227014 -0.180862 73
-0.336800 3.304453 0.127021 88
0.410296 3.391505 -0.230499 96
0.310886 3.488927 0.093558 78
0.185905 3.247879 -0.529467 100
0.084970 3.345324 -0.103411 56
-0.021934 3.424011 0.163871 61
-0.122730 3.212245 -0.335031 100
-0.230417 3.291788 -0.032253 77
-0.343768 3.378453 0.286952 69
0.414126 3.418344 -0.179252 92
0.314151 3.518877 0.148689 19
0.189822 3.306561 -0.364479 100
0.086279 3.374490 -0.052439 59
-0.021589 3.461013 0.218966 74
-0.122976 3.232954 -0.287035 76
-0.231263 3.311884 0.018542 66
0.422481 3.482404 -0.020817 100
0.193207 3.355648 -0.213825 67
0.088359 3.433261 0.104930 71
-0.123861 3.270710 -0.138898 87
-0.234011 3.359360 0.174126 61
-0.320851 3.163803 -0.319091 100
0.422573 3.478269 0.033024 82
0.194168 3.362487 -0.162370 74
0.089402 3.451202 0.158582 57
-0.018762 3.179393 -0.427053 101
-0.124130 3.292455 -0.089155 59
-0.235169 3.384206 0.227700 59
-0.321979 3.180256 -0.271228 100
0.300860 3.350903 -0.324546 91
0.197041 3.402292 -0.007138 58
-0.018568 3.238804 -0.243531 78
-0.125999 3.357028 0.063917 66
-0.208692 3.010502 -0.867714 101
-0.324771 3.213225 -0.124633 91
0.303264 3.371305 -0.274128 93
0.197828 3.405959 0.045257 52
-0.018464 3.318029 -0.198293 71
-0.126876 3.395621 0.116879 56
-0.220280 3.185436 -0.383574 94
-0.326793 3.238677 -0.075574 74
0.410420 3.354664 -0.332571 97
0.310285 3.429966 -0.013825 87
0.088064 3.292562 -0.203185 63
-0.017019 3.363465 0.057536 58
-0.120769 3.276502 -1.166341 15
-0.221706 3.229744 -0.131157 74
-0.333956 3.326474 0.179305 75
0.413981 3.379052 -0.282279 77
0.315538 3.481505 0.039660 68
0.089551 3.327232 -0.154054 62
-0.016701 3.414159 0.110875 69
-0.116710 3.180913 -0.399291 101
-0.225099 3.287261 -0.082829 76
-0.338256 3.375015 0.234212 80
0.420560 3.427977 -0.126641 85
0.196306 3.331345 -0.315451 70
0.091940 3.394755 -0.000593 61
-0.118228 3.237161 -0.237312 81
-0.227020 3.323525 0.069780 74
-0.305823 3.056589 -0.741173 101
0.423763 3.449279 -0.074009 79
0.196893 3.331775 -0.263846 80
0.092936 3.410341 0.051807 69
-0.118237 3.252413 -0.188227 75
-0.227449 3.338054 0.121515 73
-0.315511 3.158779 -0.370110 101
0.433098 3.520369 0.087923 101
0.295370 3.240783 -0.594091 100
0.200329 3.380245 -0.111148 69
0.095972 3.500104 0.214769 37
-0.014204 3.237774 -0.343735 101
-0.120193 3.321599 -0.038869 68
-0.233295 3.432374 0.284053 98
-0.319520 3.204363 -0.223488 100
0.304359 3.333209 -0.374843 98
0.202636 3.409463 -0.059617 62
-0.013765 3.262592 -0.295773 90
-0.120650 3.349806 0.012286 76
-0.319283 3.207455 -0.174004 90
0.309078 3.378613 -0.222371 72
0.205298 3.444473 0.098794 52
0.089492 3.224184 -0.473529 77
-0.013386 3.304723 -0.146600 77
-0.121942 3.401600 0.169450 55
-0.216417 3.199957 -0.328045 95
-0.325922 3.279744 -0.025886 77
0.311016 3.393498 -0.170839 77
0.208624 3.490386 0.153888 56
0.091027 3.259729 -0.352530 81
-0.012915 3.326578 -0.096407 71
-0.121690 3.410585 0.222487 49
-0.216192 3.204643 -0.278748 90
-0.324976 3.275827 0.024706 79
0.404431 3.256841 -0.682149 92
0.314830 3.411436 -0.119038 91
0.093113 3.260718 -0.302037 74
-0.010898 3.351672 -0.045631 70
-0.120801 3.446690 0.278090 65
-0.215229 3.220615 -0.230239 87
-0.326364 3.311085 0.076084 76
0.414409 3.332606 -0.382627 100
0.317008 3.428730 -0.066717 87
0.094471 3.288873 -0.253747 71
-0.010422 3.379979 0.005899 61
-0.214631 3.219815 -0.180415 80
-0.326046 3.313564 0.127327 88
0.422132 3.390052 -0.230499 94
0.324538 3.503747 0.093985 80
0.197720 3.255092 -0.530752 100
0.096647 3.345007 -0.103411 52
-0.010005 3.432057 0.164254 58
-0.111792 3.220606 -0.335860 99
-0.219455 3.300554 -0.032331 75
-0.330414 3.363766 0.285605 76
0.427044 3.424805 -0.179668 90
0.201847 3.313816 -0.365354 91
0.098057 3.374168 -0.052439 55
-0.009529 3.469051 0.219471 65
-0.111690 3.233364 -0.287035 87
-0.219966 3.316662 0.018565 66
0.435626 3.488847 -0.020864 95
0.204919 3.354953 -0.213825 74
0.100226 3.428935 0.104808 65
-0.112444 3.271122 -0.138898 84
-0.221756 3.352185 0.173713 64
-0.309806 3.164904 -0.319091 98
0.437193 3.496618 0.033212 84
0.206148 3.365777 -0.162563 78
0.101331 3.446875 0.158399 57
-0.007654 3.175474 -0.426521 101
-0.112773 3.296864 -0.089263 59
-0.223880 3.392971 0.228235 61
-0.310489 3.177394 -0.270890 101
0.312925 3.353797 -0.324930 93
0.209896 3.417553 -0.007171 57
-0.007334 3.270759 -0.245930 75
-0.114552 3.365442 0.064069 76
-0.199444 3.030392 -0.873240 101
-0.314329 3.222295 -0.124942 93
0.315772 3.378166 -0.274774 95
0.210453 3.417224 0.045416 50
-0.006882 3.318073 -0.198293 71
-0.115022 3.396043 0.116879 53
-0.208119 3.170334 -0.381665 97
-0.315486 3.239798 -0.075574 84
0.422625 3.357160 -0.332963 100
0.323753 3.444792 -0.013889 86
0.099677 3.296225 -0.203431 68
-0.005297 3.375502 0.057741 74
-0.109457 3.280670 -1.167682 19
-0.210691 3.234486 -0.131319 71
-0.321573 3.319668 0.178877 72
0.423281 3.357811 -0.280626 81
0.328439 3.488347 0.039751 79
0.100679 3.310924 -0.153314 64
-0.004761 3.398205 0.110355 59
-0.105606 3.181301 -0.399291 101
-0.212327 3.268075 -0.082326 78
-0.326089 3.372203 0.233937 68
0.431522 3.418556 -0.126348 78
0.207933 3.330639 -0.315451 74
0.104034 3.402410 -0.000594 71
-0.107059 3.241541 -0.237605 87
-0.215676 3.328288 0.069864 71
-0.295152 3.057638 -0.741173 101
0.436803 3.455714 -0.074179 86
0.209021 3.339027 -0.264477 72
0.105700 3.437979 0.052232 61
-0.107277 3.264780 -0.188920 78
-0.215795 3.338828 0.121515 73
-0.304864 3.163816 -0.370573 101
0.446890 3.530737 0.088221 101
0.308535 3.259320 -0.597682 100
0.212627 3.387506 -0.111410 63
0.107819 3.487776 0.214035 15
-0.002902 3.237804 -0.343735 101
-0.109121 3.337989 -0.039056 62
-0.220800 3.425211 0.283394 91
-0.308332 3.205459 -0.223488 100
0.316368 3.336084 -0.375288 98
0.214033 3.400752 -0.059478 68
-0.002373 3.258636 -0.295412 100
-0.108566 3.338213 0.012242 81
-0.307321 3.200598 -0.173573 76
0.320492 3.373539 -0.222109 69
0.218327 3.459697 0.099252 55
0.100251 3.208029 -0.471205 87
-0.001860 3.320734 -0.147309 78
-0.109680 3.390026 0.168854 58
-0.204991 3.196722 -0.327638 100
-0.313708 3.272898 -0.025824 73
0.323995 3.404323 -0.171440 75
0.220806 3.489636 0.153888 53
0.102405 3.259392 -0.352530 82
-0.001306 3.334600 -0.096639 77
