# This PCD file was generated using the MATLAB® pcwrite function
# from Computer Vision Toolbox®.
# .PCD v.7 - Point Cloud Data file format
VERSION .7
FIELDS x y z intensity
SIZE 4 4 4 1
TYPE F F F U
COUNT 1 1 1 1
WIDTH 1454
HEIGHT 1
VIEWPOINT 0 0 0 1 0 0 0
POINTS 1454
DATA ascii
-3.128522 4.822726 -0.421142 101
-2.306601 5.211033 -0.121361 101
-2.625447 5.043866 -0.449516 101
-3.128688 4.824759 -0.332572 101
-2.459915 5.117641 -1.036605 101
-2.644286 5.082147 -0.188046 100
-2.959234 4.899512 -0.607660 94
-2.463508 5.127326 -0.637055 101
-2.627843 5.052620 -0.099409 101
-2.954648 4.893780 -0.518236 101
-2.465823 5.134356 -0.373321 101
-2.784215 4.963425 -0.835502 101
-2.960959 4.906098 -0.254201 101
-3.277407 4.724524 -0.588120 100
-2.465421 5.135733 -0.285599 101
-2.793030 4.981103 -0.617358 101
-2.955605 4.899090 -0.165815 101
-3.270018 4.715566 -0.498011 101
-2.460330 5.133427 -0.197794 101
-2.770840 4.948846 -0.525153 101
-2.947288 4.892279 -0.077758 101
-3.277827 4.733200 -0.410674 101
-2.284668 5.182078 -0.645258 101
-2.465673 5.146795 -0.110575 101
-2.787254 4.980127 -0.440136 101
-3.273414 4.728528 -0.321532 101
-2.288529 5.193203 -0.382909 101
-2.471298 5.160766 0.152833 101
-2.616680 5.047221 -0.925282 100
-2.785549 4.979046 -0.176305 101
-3.113463 4.818575 -0.597914 101
-2.296197 5.212980 -0.296536 101
-2.627028 5.069267 -0.628321 78
-2.783753 4.977799 -0.088599 101
-3.110782 4.816204 -0.508674 101
-2.620175 5.058125 -0.362385 101
-3.112877 4.821226 -0.243539 101
-2.628922 5.077103 -0.275625 101
-2.941762 4.892411 -0.766779 101
-3.131074 4.851200 -0.156237 101
-2.455581 5.136815 -0.549231 101
-2.614567 5.051459 -0.011913 101
-2.940503 4.892180 -0.429178 101
-2.461502 5.151428 -0.462369 78
-2.611655 5.047914 0.075393 101
-2.957123 4.921706 -0.343135 101
-2.278935 5.190349 -0.557811 101
-2.447983 5.129787 -0.022817 101
-2.769064 4.965250 -0.350709 101
-3.293640 4.773170 -0.234949 57
-2.281236 5.197965 -0.470685 101
-2.452148 5.140740 0.064618 101
-2.762742 4.955874 -0.262613 101
-3.100852 4.815035 -0.718426 86
-2.288256 5.216345 -0.208869 101
-2.619815 5.074138 -0.539805 101
-2.790177 5.007068 -0.001000 101
-3.107350 4.826909 -0.420557 101
-2.290003 5.222715 -0.121446 101
-2.604167 5.045913 -0.448885 101
-3.107506 4.828935 -0.332111 101
-2.442036 5.126197 -1.036605 101
-2.626530 5.091346 -0.188046 100
-2.935980 4.899576 -0.606393 94
-2.443886 5.132304 -0.636610 101
-2.617522 5.075981 -0.099688 101
-2.943689 4.914317 -0.519319 101
-2.453032 5.153744 -0.374106 101
-2.768796 4.976572 -0.836083 101
-2.947921 4.923261 -0.254556 101
-3.283462 4.768710 -0.592190 100
-2.445762 5.140700 -0.285399 101
-2.775625 4.990822 -0.617358 101
-2.940540 4.912807 -0.165931 101
-3.253538 4.726952 -0.498011 101
-2.439862 5.134336 -0.197516 101
-2.754414 4.958007 -0.525153 101
-2.916681 4.877996 -0.077377 101
-3.255331 4.734181 -0.409820 101
-2.273836 5.204193 -0.647070 101
-2.452024 5.162168 -0.110730 101
-2.774597 4.996316 -0.440751 101
-3.266765 4.752522 -0.322425 101
-2.272893 5.204421 -0.383178 101
-2.445596 5.150872 0.152299 101
-2.598123 5.052359 -0.924639 100
-2.765142 4.981264 -0.176058 101
-3.095319 4.825525 -0.597499 101
-2.278898 5.220566 -0.296536 101
-2.617474 5.092096 -0.630071 78
-2.769171 4.990500 -0.088661 101
-3.099095 4.833201 -0.509381 101
-2.599738 5.059684 -0.361877 101
-3.092559 4.824793 -0.243199 101
-2.601120 5.064469 -0.274469 101
-2.917396 4.888522 -0.764649 101
-3.112812 4.858190 -0.156129 101
-2.436828 5.141332 -0.548847 101
-2.599628 5.063660 -0.011921 101
-2.926307 4.905330 -0.429478 101
-2.432457 5.134340 -0.460109 78
-2.596727 5.060105 0.075446 101
-2.934650 4.921197 -0.342419 101
-3.263957 4.758718 -0.693200 0
-2.264887 5.205178 -0.558594 101
-2.430958 5.137877 -0.022817 101
-2.754516 4.977898 -0.350956 101
-3.264239 4.764283 -0.233978 101
-2.265576 5.209157 -0.471015 101
-2.438507 5.156075 0.064708 101
-2.742425 4.958015 -0.262243 101
-3.087006 4.828636 -0.718924 86
-2.266165 5.212907 -0.208429 101
-2.612050 5.100520 -0.541687 101
-2.765816 5.002291 -0.000998 101
-3.087029 4.830463 -0.419973 101
-2.587420 5.054521 -0.448885 101
-3.093625 4.842579 -0.332341 101
-2.426704 5.137825 -1.037324 101
-2.609632 5.100028 -0.188046 100
-2.921749 4.912704 -0.606816 94
-2.431945 5.151165 -0.637946 101
-2.597033 5.077512 -0.099549 101
-2.929412 4.927475 -0.519680 101
-2.434224 5.158241 -0.373844 101
-2.748453 4.978796 -0.834921 101
-2.923413 4.919269 -0.253847 101
-3.256401 4.763147 -0.590155 100
-2.428702 5.148782 -0.285399 101
-2.762903 5.006963 -0.618218 101
-2.928316 4.929407 -0.166163 101
-3.251336 4.757456 -0.500086 101
-2.421887 5.142839 -0.197516 101
-2.729366 4.953658 -0.523678 101
-2.899600 4.888168 -0.077377 101
-3.229754 4.732357 -0.408681 101
-2.249318 5.197519 -0.645258 101
-2.430559 5.163470 -0.110575 101
-2.757117 5.005983 -0.440751 101
-3.243382 4.754014 -0.321755 101
-2.259456 5.223316 -0.383986 101
-2.430997 5.166617 0.152512 101
-2.580463 5.061402 -0.924639 100
-2.749657 4.994393 -0.176182 101
-3.078447 4.836306 -0.597499 101
-2.259081 5.224820 -0.296328 101
-2.594273 5.090571 -0.628758 78
-2.751739 5.000134 -0.088661 101
-3.082211 4.843987 -0.509381 101
-2.580268 5.065161 -0.361623 101
-3.075717 4.835547 -0.243199 101
-2.592524 5.091302 -0.275432 101
-2.900346 4.898657 -0.764649 101
-3.074413 4.835263 -0.155047 101
-2.420608 5.153387 -0.549231 101
-2.581985 5.072680 -0.011921 101
-2.907181 4.912055 -0.429178 101
-2.423055 5.160815 -0.461723 78
-2.588179 5.086930 0.075712 101
-2.923614 4.941684 -0.343135 101
-3.240680 4.760194 -0.691769 40
-2.249963 5.220317 -0.559378 101
-2.413115 5.146281 -0.022817 101
-2.741068 4.994426 -0.351448 101
-3.229707 4.749142 -0.232682 101
-2.249079 5.220641 -0.471346 101
-2.420616 5.164499 0.064708 101
-2.732906 4.981507 -0.262983 101
-3.070245 4.839310 -0.718924 86
-2.252835 5.231740 -0.208869 101
-2.592561 5.105988 -0.541311 101
-2.750393 5.015350 -0.000998 101
-3.068140 4.837760 -0.419680 101
-2.568103 5.059891 -0.448570 101
-3.072567 4.846513 -0.331880 101
-2.412255 5.153315 -1.038761 101
-2.590168 5.105458 -0.187915 100
-2.906761 4.926206 -0.607238 94
-2.410758 5.152337 -0.637055 101
-2.575852 5.079323 -0.099409 101
-2.904270 4.923845 -0.518236 101
-3.395254 4.677163 -0.311999 100
-2.418089 5.170231 -0.374106 101
-2.567118 5.064176 0.162559 101
-2.735045 4.995201 -0.836083 101
-2.908438 4.932776 -0.254024 101
-3.222058 4.748022 -0.586899 101
-2.400771 5.135417 -0.284197 101
-2.739883 5.006001 -0.616928 101
-2.899109 4.918814 -0.165468 101
-3.228190 4.758752 -0.499049 101
-2.407302 5.158507 -0.197794 101
-2.719697 4.977136 -0.525153 101
-2.884547 4.901707 -0.077432 101
-3.219928 4.753512 -0.409535 101
-2.235859 5.216298 -0.646617 101
-2.417592 5.182796 -0.110808 101
-2.735802 5.008577 -0.440136 101
-3.242442 4.788455 -0.323318 101
-2.242782 5.234839 -0.384255 101
-2.416327 5.182320 0.152726 63
-2.555655 5.056284 -0.922069 100
-2.734122 5.007470 -0.176305 101
-3.067921 4.857113 -0.598743 101
-2.243974 5.240018 -0.296744 101
-2.580074 5.106693 -0.629634 78
-2.734269 5.009708 -0.088661 101
-3.063156 4.851347 -0.509027 101
-2.558973 5.067011 -0.361116 101
-3.054553 4.839495 -0.242860 101
-2.569335 5.089621 -0.274854 101
-2.891260 4.922424 -0.766779 101
-3.042581 4.822293 -0.154289 101
-2.402605 5.161805 -0.549231 101
-2.560658 5.074519 -0.011905 101
-2.881939 4.908414 -0.427979 101
-2.394935 5.147553 -0.459786 78
-2.565003 5.085221 0.075552 101
-2.900283 4.941529 -0.342419 101
-3.230714 4.781350 -0.693200 57
-2.233290 5.231800 -0.559770 101
-2.396822 5.158301 -0.022833 101
-2.719800 4.996951 -0.350956 101
-3.210874 4.757074 -0.232520 101
-2.230842 5.228460 -0.471346 101
-2.400889 5.169290 0.064663 101
-2.709771 4.980486 -0.262428 101
-3.046991 4.839921 -0.717430 86
-2.567560 5.100779 -0.539805 101
-2.740514 5.038976 -0.001001 101
-3.059734 4.861946 -0.420849 101
-2.554009 5.075949 -0.449200 101
-2.748916 5.056417 0.087398 29
-3.057757 4.860589 -0.332111 101
-2.389285 5.150995 -1.036605 101
-2.574127 5.118040 -0.188046 100
-2.885529 4.929457 -0.606393 94
-3.367148 4.671039 -0.399619 31
-2.392759 5.160721 -0.637055 101
-2.563496 5.099003 -0.099618 101
-2.889077 4.937391 -0.518597 101
-3.385912 4.698708 -0.312646 101
-2.396670 5.171398 -0.373583 101
-2.551220 5.076679 0.162673 101
-2.711927 4.994283 -0.834340 101
-2.889184 4.939449 -0.253847 101
-3.192127 4.739438 -0.584457 101
-2.391227 5.161891 -0.285199 101
-2.724289 5.019029 -0.617358 101
-2.887976 4.939259 -0.165815 101
-3.222687 4.786520 -0.500778 101
-2.387603 5.163250 -0.197655 101
-2.700409 4.983097 -0.524784 101
-2.865403 4.908292 -0.077377 101
-3.196638 4.754789 -0.408681 101
-2.211426 5.209437 -0.644805 101
-2.396130 5.183942 -0.110653 101
-2.712604 5.007576 -0.439213 101
-2.897110 4.964490 0.010032 0
-3.210114 4.776541 -0.321755 101
-2.221377 5.235289 -0.383717 101
-2.537990 5.065175 -0.922069 100
-2.712819 5.009952 -0.176058 101
-3.044609 4.857679 -0.597499 101
-2.222550 5.240464 -0.296328 101
-2.549768 5.090783 -0.626571 78
-2.711053 5.008670 -0.088475 101
-3.037741 4.848504 -0.507613 101
-2.543057 5.079482 -0.361369 101
-3.037641 4.850128 -0.242860 101
-2.556917 5.109277 -0.275432 101
-2.862085 4.911935 -0.763584 101
-3.034216 4.846441 -0.154722 101
-2.381237 5.162930 -0.548463 101
-2.544719 5.087004 -0.011913 101
-2.862780 4.914997 -0.427679 101
-2.380291 5.163123 -0.460432 78
-2.547236 5.094143 0.075552 101
-2.887034 4.958524 -0.342896 101
-3.194097 4.762912 -0.688906 61
-2.208813 5.224897 -0.558203 101
-2.377129 5.163002 -0.022817 101
-2.709927 5.020467 -0.351941 101
-3.194249 4.768253 -0.232520 101
-2.215680 5.243559 -0.472007 101
-2.384502 5.181272 0.064708 101
-2.696164 4.996948 -0.262798 101
-3.030078 4.850528 -0.717430 86
-2.558630 5.127526 -0.541687 101
-2.717211 5.037950 -0.000999 101
-3.036404 4.862445 -0.419973 101
-2.532716 5.077696 -0.448570 101
-2.719861 5.044859 0.087033 101
-3.036543 4.864458 -0.331649 101
-2.371290 5.159304 -1.036605 101
-2.554462 5.123416 -0.187915 100
-2.868304 4.939499 -0.606393 94
-3.353145 4.686009 -0.399896 100
-2.371411 5.161818 -0.636165 101
-2.549249 5.115079 -0.099758 101
-2.867825 4.940555 -0.517874 101
-3.348576 4.681260 -0.310706 101
-2.388598 5.201496 -0.375152 101
-2.542398 5.103447 0.163246 101
-2.700106 5.014173 -0.836083 101
-2.881953 4.966786 -0.254733 101
-3.193255 4.777017 -0.587713 101
-2.369860 5.162944 -0.284798 101
-2.704868 5.025006 -0.616928 101
-2.870718 4.949309 -0.165815 101
-3.192676 4.777860 -0.498703 101
-2.367952 5.167895 -0.197516 101
-2.679278 4.985449 -0.524047 101
-2.844293 4.911314 -0.077268 101
-3.182283 4.769206 -0.408966 101
-2.197881 5.228103 -0.646164 101
-2.374722 5.184988 -0.110498 101
-2.695138 5.016997 -0.439213 101
-2.867769 4.953784 0.009990 1
-3.186802 4.777730 -0.321085 101
-2.204648 5.246685 -0.383986 101
-2.529088 5.091676 -0.925282 100
-2.695326 5.019384 -0.176058 101
-3.033949 4.878405 -0.598743 101
-2.202690 5.244510 -0.296120 101
-2.530207 5.096095 -0.626133 78
-2.695438 5.021631 -0.088537 101
-3.024999 4.865850 -0.508320 101
-2.523510 5.084765 -0.361116 101
-3.016448 4.853929 -0.242521 101
-2.530143 5.100298 -0.274469 101
-2.850829 4.932218 -0.765181 101
-3.025676 4.870616 -0.155155 101
-3.355946 4.709909 -0.490713 2
-2.368098 5.182105 -0.549616 101
-2.532211 5.106639 -0.011938 101
-2.843547 4.921543 -0.427379 101
-2.368793 5.185946 -0.461723 78
-2.538235 5.120964 0.075818 101
-2.865631 4.961704 -0.342419 101
-3.168570 4.760861 -0.686998 56
-2.196563 5.247325 -0.559770 101
-2.360606 5.174974 -0.022833 101
-2.684708 5.015892 -0.350956 101
-3.181876 4.786121 -0.232844 101
-2.194118 5.243977 -0.471346 101
-2.672890 4.995845 -0.262243 101
-3.008790 4.854424 -0.716434 86
-2.540532 5.136517 -0.541687 101
-2.699428 5.047501 -0.000999 101
-3.023440 4.879905 -0.420557 101
-2.518309 5.093755 -0.449200 101
-2.705805 5.061484 0.087155 101
-3.023556 4.881938 -0.332111 101
-2.354672 5.171233 -1.037324 101
-2.532797 5.125244 -0.187652 100
-2.852815 4.953052 -0.606816 94
-3.035996 4.903877 -0.067448 0
-3.311146 4.662044 -0.396850 100
-2.353134 5.170175 -0.636165 101
-2.525822 5.113309 -0.099549 101
-2.850327 4.950670 -0.517874 101
-3.338930 4.702848 -0.311353 101
-2.360243 5.188124 -0.373583 101
-2.513686 5.090909 0.162559 101
-2.687922 5.034178 -0.837826 101
-2.854377 4.959645 -0.253847 101
-3.174117 4.784981 -0.587306 101
-2.358155 5.185861 -0.285599 101
-2.690779 5.041582 -0.617788 101
-2.855145 4.962923 -0.165931 101
-3.180120 4.795792 -0.499394 101
-2.348245 5.172489 -0.197377 101
-2.661859 4.994771 -0.524047 101
-2.825140 4.917744 -0.077214 175
-3.167819 4.783612 -0.409251 101
-2.182673 5.243081 -0.647070 101
-2.358261 5.196887 -0.110575 101
-2.679485 5.029895 -0.439521 101
-2.874363 5.005389 0.010074 99
-3.170105 4.788825 -0.321085 101
-2.184787 5.250664 -0.383717 101
-2.509555 5.096931 -0.924639 100
-2.677789 5.028762 -0.176058 101
-3.014812 4.885580 -0.598329 101
-2.515915 5.112031 -0.627008 78
-2.674134 5.023948 -0.088413 101
-3.007995 4.876380 -0.508320 101
-2.503983 5.089961 -0.360862 101
-3.003682 4.871232 -0.242860 101
-2.517613 5.119855 -0.275047 101
-2.827679 4.931822 -0.763584 101
-3.002362 4.870937 -0.154830 101
-3.334882 4.715086 -0.490037 100
-2.351637 5.193966 -0.550000 101
-2.517899 5.122627 -0.011955 101
-2.828334 4.934899 -0.427679 101
-2.344101 5.179654 -0.460432 78
-2.511525 5.111844 0.075552 101
-2.850279 4.975141 -0.342657 101
-3.143177 4.758637 -0.685089 63
-2.178233 5.254961 -0.559770 101
-2.340881 5.179538 -0.022817 101
-2.672798 5.035812 -0.351694 101
-3.154145 4.780518 -0.232035 101
-2.180377 5.262652 -0.472338 101
-2.655435 5.005145 -0.262243 101
-2.991827 4.864898 -0.716434 86
-2.522586 5.145354 -0.541687 101
-2.685541 5.063960 -0.001000 101
-3.000120 4.880234 -0.419680 101
-2.498758 5.098934 -0.448885 101
-2.688121 5.070899 0.087155 101
-3.000224 4.882255 -0.331418 101
-2.336607 5.179421 -1.037324 101
-2.514891 5.134054 -0.187652 100
-2.835508 4.962980 -0.606816 94
-2.993737 4.873548 -0.066886 0
-3.313246 4.699664 -0.399066 101
-2.335072 5.178358 -0.636165 101
-2.500923 5.107727 -0.099269 101
-2.831053 4.957130 -0.517513 101
-3.324794 4.717740 -0.311568 101
-2.343759 5.199970 -0.373844 101
-2.497658 5.103244 0.162673 101
-2.661074 5.026042 -0.834921 101
-2.837047 4.969578 -0.253847 101
-3.166147 4.809326 -0.588934 101
-2.331833 5.175849 -0.284598 101
-2.667583 5.040399 -0.616498 101
-2.831859 4.962440 -0.165583 101
-3.158978 4.800206 -0.498703 101
-2.333455 5.187946 -0.197655 101
-2.644408 5.004032 -0.524047 101
-2.829739 4.965801 -0.077813 101
-3.148911 4.791306 -0.408966 101
-2.159814 5.239645 -0.645711 101
-2.348306 5.223326 -0.110962 101
-2.665636 5.046270 -0.440136 101
-2.843015 4.991062 0.010025 101
-3.155563 4.803199 -0.321309 101
-2.171006 5.269328 -0.384525 101
-2.491748 5.105660 -0.924639 100
-2.658352 5.034544 -0.175935 101
-3.001895 4.902860 -0.599158 101
-2.499798 5.124355 -0.627446 78
-2.658448 5.036789 -0.088475 101
-2.990955 4.886850 -0.508320 101
-2.489700 5.105847 -0.361369 101
-2.982488 4.874869 -0.242521 101
-2.487473 5.103472 -0.273699 101
-2.812407 4.945108 -0.764116 101
-2.991600 4.891621 -0.155155 101
-3.332144 4.746271 -0.492066 101
-2.331863 5.198511 -0.549616 101
-2.480731 5.091829 -0.011863 101
-2.811091 4.944742 -0.427679 101
-2.326006 5.187804 -0.460432 78
-2.493666 5.120580 0.075552 101
-2.828950 4.978117 -0.342180 101
-3.154851 4.812758 -0.691292 64
-2.161388 5.266215 -0.560161 101
-2.316248 5.173075 -0.022753 200
-2.649625 5.034513 -0.350956 101
-3.133060 4.784812 -0.231711 101
-2.163507 5.273919 -0.472668 101
-2.643529 5.024992 -0.262798 101
-2.976894 4.878699 -0.716932 86
-2.502870 5.150547 -0.541311 101
-2.662263 5.062683 -0.000998 101
-2.983067 4.890676 -0.419680 101
-2.477460 5.100451 -0.448255 101
-2.677847 5.094412 0.087398 101
-2.987322 4.899517 -0.331880 101
-2.313696 5.176768 -1.035169 101
-2.496955 5.142801 -0.187652 100
-2.814244 4.965927 -0.605971 94
-2.974625 4.880552 -0.066840 39
-3.308260 4.727548 -0.400450 101
-2.323468 5.200995 -0.637946 101
-2.484825 5.120024 -0.099339 101
-2.817659 4.973915 -0.518236 101
-3.308306 4.729317 -0.311568 101
-2.327221 5.211764 -0.374106 101
-2.474593 5.101139 0.162330 101
-2.650872 5.049316 -0.837245 101
-2.817713 4.975974 -0.253670 101
-3.151516 4.823680 -0.589341 101
-2.317008 5.191253 -0.284998 101
-2.649973 5.049680 -0.616498 101
-2.820428 4.982734 -0.165931 101
-3.135666 4.801194 -0.497665 101
-2.320213 5.207014 -0.198072 101
-2.630622 5.020288 -0.524784 101
-2.818292 4.986094 -0.077976 101
-3.127807 4.795585 -0.408397 101
-2.144514 5.254511 -0.646617 101
-2.323550 5.216878 -0.110653 101
-2.646155 5.052011 -0.439828 101
-2.821640 4.993990 0.010011 101
-3.143140 4.820876 -0.321755 101
-2.467034 5.100111 -0.922069 100
-2.642617 5.047334 -0.176058 101
-2.976500 4.899708 -0.597499 101
-2.488819 5.147368 -0.629196 78
-2.642704 5.049582 -0.088537 101
-2.973879 4.897261 -0.508320 101
-2.470125 5.110912 -0.361116 101
-2.965454 4.885250 -0.242521 101
-3.288888 4.717902 -0.577080 101
-2.487023 5.148099 -0.275625 101
-2.800971 4.965254 -0.765714 101
-2.974506 4.902034 -0.155155 101
-3.288211 4.718633 -0.488008 101
-2.318553 5.217534 -0.550768 101
-2.483815 5.143682 -0.011963 101
-2.795773 4.957999 -0.427979 101
-2.311120 5.203179 -0.461077 78
-2.479254 5.136457 0.075659 101
-2.811556 4.987962 -0.342180 101
-3.140198 4.827071 -0.691769 64
-2.142992 5.273728 -0.560161 101
-2.633882 5.047270 -0.351202 101
-3.118516 4.799070 -0.231873 101
-2.142084 5.274053 -0.472007 101
-2.624124 5.030647 -0.262613 101
-2.953680 4.878875 -0.715439 86
-3.095315 4.765131 -0.142839 2
-2.488332 5.166427 -0.542064 101
-2.646424 5.075492 -0.000999 101
-2.968042 4.904473 -0.419973 101
-2.464830 5.119847 -0.449200 101
-2.656351 5.096635 0.087276 101
-2.961933 4.896248 -0.330956 101
-2.298798 5.192009 -1.036605 101
-2.482455 5.158691 -0.187915 100
-2.794944 4.972252 -0.605549 94
-2.949292 4.877216 -0.066653 100
-3.291738 4.739067 -0.400450 101
-2.300473 5.198168 -0.636610 101
-2.466938 5.128666 -0.099339 101
-2.792474 4.969828 -0.516791 101
-3.273553 4.714589 -0.309843 101
-2.310629 5.223506 -0.374368 101
-2.463702 5.124160 0.162788 101
-2.633230 5.058539 -0.837245 101
-2.804241 4.992748 -0.254024 101
-3.132494 4.831312 -0.588934 101
-2.298873 5.199310 -0.284998 101
-2.630494 5.055372 -0.616068 101
-2.797145 4.982090 -0.165583 101
-3.131892 4.832175 -0.499740 101
-2.295566 5.200453 -0.197516 101
-2.607573 5.018837 -0.523678 101
-2.793046 4.981946 -0.077758 101
-3.111048 4.806474 -0.408397 101
-2.124671 5.258280 -0.646164 101
-2.302097 5.217639 -0.110498 101
-2.624828 5.054139 -0.439213 101
-2.790502 4.979383 0.009962 101
-3.117615 4.818406 -0.320862 101
-2.457750 5.126492 -0.925282 100
-2.624982 5.056528 -0.176058 101
-2.963486 4.916883 -0.598329 101
-2.462245 5.138096 -0.627008 78
-2.626904 5.062325 -0.088599 101
-2.956766 4.907611 -0.508320 101
-2.459167 5.133904 -0.362131 101
-2.956630 4.909266 -0.243199 101
-3.292781 4.758810 -0.580674 101
-2.467312 5.153146 -0.275432 101
-2.773943 4.957703 -0.763052 101
-2.957377 4.912387 -0.155155 101
-3.260383 4.713693 -0.486317 101
-2.301931 5.229239 -0.551152 101
-2.465845 5.152321 -0.011963 101
-2.780396 4.971209 -0.428278 101
-2.292943 5.211215 -0.461077 78
-2.456131 5.134256 0.075499 101
-2.796076 5.001231 -0.342419 101
-3.123329 4.838003 -0.691769 64
-2.123085 5.277483 -0.559770 101
-2.612579 5.049342 -0.350709 101
-3.099579 4.806568 -0.231711 101
-2.125148 5.285196 -0.472338 101
-2.604712 5.036227 -0.262428 101
-2.942762 4.899363 -0.716932 86
-3.137160 4.866652 -0.145554 100
-2.465136 5.164300 -0.540935 101
-2.625017 5.077592 -0.000998 101
-2.952958 4.918223 -0.420265 101
-2.445226 5.124821 -0.448885 101
-2.627527 5.084557 0.086912 101
-2.946879 4.909981 -0.331187 101
-3.252743 4.716282 -0.667957 3
-2.290143 5.221624 -1.040916 101
-2.460991 5.160108 -0.187652 100
-2.775634 4.978504 -0.605127 94
-2.938423 4.897770 -0.066793 101
-3.279706 4.757099 -0.401004 101
-2.280718 5.202526 -0.636165 101
-2.449020 5.137246 -0.099339 101
-2.777049 4.983025 -0.517152 101
-3.266142 4.739142 -0.310706 101
-2.289178 5.224228 -0.373844 101
-2.440641 5.121900 0.162444 101
-2.610111 5.057149 -0.835502 101
-2.773183 4.978069 -0.252783 101
-3.111305 4.835525 -0.588120 101
-2.279108 5.203643 -0.284798 101
-2.611009 5.060989 -0.615639 101
-2.779738 4.991823 -0.165583 101
-3.102071 4.822968 -0.497665 101
-2.278308 5.208036 -0.197516 101
-2.594564 5.034537 -0.524415 101
-2.772622 4.984190 -0.077649 101
-3.095093 4.816764 -0.408397 101
-2.114605 5.283746 -0.648428 101
-2.608053 5.062815 -0.439213 101
-2.773975 4.988610 0.009962 101
-3.105936 4.835438 -0.321309 101
-2.440737 5.134614 -0.925282 100
-2.606369 5.061650 -0.175935 101
-2.947165 4.926683 -0.598329 101
-2.443486 5.142642 -0.626571 78
-2.606442 5.063897 -0.088475 101
-2.940475 4.917389 -0.508320 101
-2.442129 5.142031 -0.362131 101
-2.936233 4.912182 -0.242860 101
-3.265713 4.753301 -0.578677 101
-2.441643 5.143253 -0.274469 101
-2.761336 4.973806 -0.764116 101
-2.943122 4.925599 -0.155263 101
-3.246991 4.727764 -0.486655 101
-2.278209 5.222247 -0.549616 101
-2.429883 5.120718 -0.011871 101
-2.760025 4.973426 -0.427679 101
-3.269006 4.761546 -0.222890 0
-2.275650 5.218790 -0.461077 78
-2.444234 5.153214 0.075659 101
-2.773665 5.000000 -0.341703 101
-3.107269 4.848333 -0.691769 64
-2.105572 5.284494 -0.559770 101
-2.592174 5.050874 -0.350217 101
-3.090088 4.826918 -0.232197 101
-2.591645 5.051947 -0.262798 101
-2.916338 4.892049 -0.714443 86
-3.090829 4.829875 -0.144146 101
-2.441183 5.158049 -0.539429 101
-2.608165 5.086269 -0.000998 101
-2.934590 4.924562 -0.419973 101
-2.428218 5.132901 -0.448885 101
-2.608828 5.089683 0.086851 101
-2.926493 4.912865 -0.330725 101
-3.239330 4.730321 -0.668421 101
-2.272815 5.229189 -1.040916 73
-2.447284 5.175468 -0.187915 100
-2.764885 4.998123 -0.606393 94
-2.922165 4.907487 -0.066793 101
-3.257150 4.758070 -0.400173 101
-2.268205 5.220998 -0.637501 101
-2.433680 5.148955 -0.099409 101
-2.764364 4.999179 -0.517874 101
-3.248153 4.746651 -0.310490 101
-2.273431 5.235452 -0.374106 101
-2.427058 5.137196 0.162673 101
-2.589720 5.058731 -0.834340 101
-2.762459 4.997730 -0.253315 101
-3.088826 4.835755 -0.586899 101
-2.260249 5.207508 -0.284598 101
-2.596023 5.073160 -0.616068 101
-2.761235 4.997514 -0.165468 101
-3.088205 4.836587 -0.498011 101
-2.258473 5.212312 -0.197377 101
-2.575112 5.040042 -0.524047 101
-2.760953 5.004372 -0.077813 101
-3.073921 4.820841 -0.407828 101
-2.088797 5.272634 -0.646164 101
-2.590333 5.071904 -0.439213 101
-2.768103 5.019296 0.010004 101
-3.086861 4.842902 -0.321085 101
-2.419421 5.135965 -0.923997 100
-2.588673 5.070724 -0.175935 101
-2.923846 4.926684 -0.597085 101
-2.430609 5.161928 -0.627883 78
-2.594211 5.083648 -0.088661 101
-2.923300 4.927619 -0.508320 101
-2.420792 5.143288 -0.361623 101
-2.912979 4.912075 -0.242351 101
-3.249126 4.764654 -0.578677 101
-2.433926 5.173414 -0.275625 101
-2.745915 4.986863 -0.764649 101
-2.919838 4.925498 -0.154938 101
-3.241736 4.755507 -0.488346 101
-2.258454 5.226483 -0.549231 101
-2.417166 5.139997 -0.011896 101
-2.742712 4.982995 -0.427679 101
-3.241173 4.756371 -0.222118 40
-2.268573 5.252285 -0.463338 78
-2.428019 5.165293 0.075712 101
-2.760128 5.016603 -0.342180 101
-3.098933 4.872503 -0.693677 64
-2.090183 5.299160 -0.560553 101
-2.581913 5.074052 -0.351202 101
-3.071213 4.834215 -0.232035 101
-2.574157 5.060881 -0.262798 101
-2.899400 4.902106 -0.714443 86
-3.076249 4.843912 -0.144247 101
-2.431804 5.184478 -0.541311 101
-2.592390 5.098815 -0.000998 101
-2.911468 4.924369 -0.419096 101
-2.410490 5.141251 -0.448885 101
-2.589436 5.095090 0.086790 101
-2.911554 4.926373 -0.330956 101
-3.256490 4.790760 -0.675369 101
-2.429428 5.183874 -0.187915 100
-2.738072 4.990188 -0.604282 94
-2.909300 4.924419 -0.066886 101
-3.242972 4.772571 -0.400450 101
-2.251785 5.232429 -0.637946 101
-2.417633 5.160926 -0.099479 101
-2.747134 5.008668 -0.517874 101
-3.234034 4.761111 -0.310706 101
-2.258564 5.250574 -0.374629 101
-2.416157 5.159997 0.163131 101
-2.575888 5.074667 -0.835502 101
-2.752937 5.021218 -0.254024 101
-3.078567 4.856433 -0.588120 101
-2.254968 5.244603 -0.286200 101
-2.582177 5.089142 -0.616928 101
-2.751735 5.020996 -0.165931 101
-3.071570 4.847168 -0.498011 101
-2.249724 5.242206 -0.198211 101
-2.555703 5.045447 -0.523678 101
-2.743468 5.013979 -0.077813 101
-3.061342 4.838285 -0.408397 101
-2.068928 5.276193 -0.645711 101
-2.567208 5.070241 -0.438290 101
-2.742888 5.014890 0.009976 101
-3.065668 4.846897 -0.320639 101
-2.403149 5.147956 -0.924639 100
-2.569151 5.076161 -0.175811 101
-2.900576 4.926575 -0.595841 101
-2.415938 5.177588 -0.628758 78
-2.558395 5.056984 -0.088040 101
-2.910123 4.944661 -0.509027 101
-2.397762 5.140853 -0.360862 101
-2.574716 5.091337 0.174314 19
-2.891762 4.915324 -0.242012 101
-3.221320 4.759486 -0.576680 101
-2.414165 5.178257 -0.275432 101
-2.722791 4.985979 -0.763052 101
-2.904654 4.939106 -0.155047 101
-3.225116 4.766793 -0.488346 101
-2.243330 5.241656 -0.550000 101
-2.399210 5.148403 -0.011896 101
-2.725301 4.992538 -0.427679 101
-3.215593 4.754412 -0.221501 76
-2.247089 5.252841 -0.462692 78
-2.409974 5.173737 0.075712 101
-2.740688 5.022702 -0.341941 101
-3.077666 4.876574 -0.692723 64
-2.558791 5.072340 -0.350463 101
-3.054320 4.844906 -0.232035 101
-2.552877 5.062699 -0.262428 101
-2.884280 4.915620 -0.714941 86
-3.057190 4.851238 -0.144146 101
-2.410335 5.185713 -0.540558 101
-2.576376 5.111405 -0.000999 101
-2.898298 4.941384 -0.419680 101
-2.394209 5.153250 -0.449200 101
-2.571635 5.104098 0.086790 101
-2.898379 4.943396 -0.331418 101
-3.217526 4.769161 -0.670737 101
-2.413002 5.195949 -0.188046 100
-2.726340 5.010197 -0.605549 94
-2.886025 4.924192 -0.066746 101
-3.217368 4.770628 -0.399343 101
-2.235065 5.243914 -0.638391 101
-2.401287 5.172961 -0.099549 101
-2.720116 5.000730 -0.516069 101
-3.210697 4.762436 -0.310059 101
-2.241787 5.262098 -0.374891 101
-2.554600 5.076557 -0.834340 101
-2.725849 5.013244 -0.253138 101
-3.055240 4.857045 -0.586899 101
-2.228821 5.234065 -0.285199 101
-2.559035 5.087466 -0.615639 101
-2.728464 5.020032 -0.165583 101
-3.044025 4.840993 -0.496282 101
-2.541651 5.061457 -0.524415 101
-2.725949 5.023525 -0.077813 101
-3.038069 4.838804 -0.407543 101
-2.056250 5.298203 -0.647522 101
-2.554862 5.089864 -0.439213 101
-2.725366 5.024434 0.009976 101
-3.046607 4.854186 -0.320415 101
-2.388479 5.163480 -0.925924 100
-2.547831 5.077951 -0.175564 101
-2.887374 4.943541 -0.596670 101
-2.386170 5.160727 -0.625696 78
-2.551485 5.087335 -0.088413 101
-2.880792 4.934144 -0.506906 101
-2.386501 5.163686 -0.361877 101
-2.564096 5.114590 0.174802 101
-2.880630 4.935742 -0.242521 101
-3.215784 4.787221 -0.578677 101
-2.387697 5.168517 -0.274469 101
-2.701594 4.988481 -0.761987 101
-2.885381 4.945761 -0.154938 101
-3.208457 4.778022 -0.488346 101
-2.225019 5.249454 -0.550000 101
-2.381224 5.156746 -0.011896 101
-2.700261 4.987990 -0.426479 101
-3.207888 4.778883 -0.222118 100
-2.230294 5.264323 -0.463015 78
-2.388547 5.174855 0.075605 101
-2.723139 5.032238 -0.341941 101
-3.052194 4.873823 -0.690814 64
-2.544641 5.088382 -0.350956 101
-3.028911 4.841985 -0.231387 101
-2.536976 5.075154 -0.262613 101
-2.865107 4.922228 -0.714443 86
-3.042357 4.865270 -0.144247 101
-2.397216 5.204946 -0.541687 101
-2.556731 5.116789 -0.000998 101
-2.866988 4.927334 -0.417635 101
-2.372871 5.154331 -0.448570 101
-2.557377 5.120200 0.086912 101
-2.873075 4.939675 -0.330494 101
-3.185385 4.757254 -0.667494 101
-2.389837 5.193445 -0.187652 100
-2.703168 5.009182 -0.604282 94
-2.868819 4.934236 -0.066746 101
-3.205135 4.788462 -0.399896 101
-2.215201 5.248022 -0.637946 101
-2.378201 5.170412 -0.099339 101
-2.704535 5.013700 -0.516430 101
-3.187390 4.763655 -0.309412 101
-2.221853 5.266213 -0.374629 101
-2.540397 5.092526 -0.835502 101
-2.706436 5.019211 -0.252961 101
-3.042481 4.874431 -0.587713 101
-2.212090 5.245494 -0.285399 101
-2.539487 5.092809 -0.615209 101
-2.709027 5.026006 -0.165468 101
-3.033437 4.861732 -0.497319 101
-2.525780 5.073845 -0.524784 101
-2.706538 5.029468 -0.077758 101
-3.021196 4.849358 -0.407543 101
-2.040618 5.312758 -0.648428 101
-2.537102 5.098740 -0.439213 101
-2.711624 5.040950 0.009990 101
-3.033889 4.871557 -0.320862 101
-2.375385 5.182549 -0.927852 100
-2.537221 5.101129 -0.176058 101
-2.866120 4.946699 -0.595841 101
-2.371447 5.176256 -0.626571 78
-2.530145 5.089050 -0.088288 101
-2.861549 4.940725 -0.506553 101
-2.365118 5.164735 -0.361369 101
-2.539090 5.109198 0.174314 101
-2.861362 4.942320 -0.242351 101
-3.192412 4.788495 -0.577479 101
-2.374595 5.187735 -0.275047 101
-2.686007 5.001391 -0.762519 101
-2.862058 4.945440 -0.154614 101
-3.189517 4.785897 -0.488008 101
-2.205091 5.253539 -0.549616 101
-2.369817 5.179599 -0.011930 101
-2.688446 5.007954 -0.427379 101
-3.200006 4.803387 -0.222735 101
-2.211840 5.272104 -0.463015 78
-2.701718 5.034709 -0.341464 101
-3.035102 4.884485 -0.690814 64
-2.521439 5.086555 -0.350217 101
-2.697929 5.033744 0.097695 58
-3.011890 4.852590 -0.231387 101
-2.515578 5.076877 -0.262243 101
-2.851761 4.939141 -0.715439 86
-3.027350 4.879329 -0.144347 101
-2.378896 5.213345 -0.541687 101
-2.538719 5.125749 -0.000998 101
-2.863600 4.961572 -0.419680 101
-2.356369 5.166279 -0.448885 101
-2.539339 5.129169 0.086912 101
-2.857666 4.953216 -0.330725 101
-3.159826 4.755200 -0.665641 101
-2.373186 5.205468 -0.187783 100
-2.691136 5.029194 -0.605549 94
-2.839431 4.923522 -0.066466 101
-3.181623 4.789751 -0.399066 101
-2.198219 5.259466 -0.638391 101
-2.358301 5.175124 -0.099269 101
-2.686843 5.023203 -0.516430 101
-2.874737 4.986680 0.021097 0
-3.174995 4.781517 -0.309843 101
-2.203260 5.274020 -0.374629 101
-2.531185 5.119195 -0.838407 101
-2.690595 5.032252 -0.253138 101
-3.025264 4.885135 -0.587713 101
-2.519726 5.098179 -0.614779 101
-2.687495 5.028488 -0.165236 101
-3.018349 4.875801 -0.497665 101
-2.502766 5.071915 -0.523678 101
-2.683317 5.028299 -0.077595 101
-3.004250 4.859874 -0.407543 101
-2.519289 5.107565 -0.439213 101
-2.688363 5.039796 0.009969 101
-3.008468 4.868528 -0.319969 101
-2.352383 5.180025 -0.925924 100
-2.514095 5.099196 -0.175688 101
-2.854783 4.967022 -0.597085 101
-2.356651 5.191744 -0.627446 78
-2.521205 5.115788 -0.088599 101
-2.850240 4.961048 -0.507613 101
-2.347075 5.172960 -0.361369 101
-2.515940 5.107270 0.173947 101
-2.852054 4.966140 -0.243030 101
-3.180070 4.806248 -0.578278 101
-2.361422 5.206908 -0.275625 101
-2.666669 5.007237 -0.761987 101
-2.846768 4.958868 -0.154722 101
-3.177189 4.803650 -0.488684 101
-2.189796 5.268558 -0.550384 101
-2.353374 5.191483 -0.011938 200
-2.667200 5.010266 -0.426779 101
-3.161175 4.781186 -0.221193 101
-2.191894 5.276110 -0.462692 78
-2.691630 5.058209 -0.342419 101
-3.013865 4.888288 -0.689860 64
-2.505428 5.098908 -0.350463 101
-2.667203 5.018410 0.097216 101
-2.997029 4.866477 -0.231549 101
-2.494318 5.078454 -0.261874 101
-2.822668 4.928401 -0.712451 86
-3.008203 4.886462 -0.144247 101
-2.362324 5.225245 -0.542064 101
-2.519049 5.130989 -0.000998 101
-2.838335 4.957690 -0.418511 101
-2.336679 5.170839 -0.448570 101
-2.516134 5.127231 0.086730 101
-2.838375 4.959695 -0.330494 101
-3.154145 4.782784 -0.667957 101
-2.359938 5.224651 -0.188177 100
-2.669836 5.031530 -0.604704 94
-2.816269 4.922988 -0.066325 101
-3.167081 4.804159 -0.399343 101
-2.182887 5.274454 -0.639281 101
-2.346805 5.197905 -0.099549 101
-2.671160 5.036071 -0.516791 101
-2.867241 5.014046 0.021170 5
-3.156087 4.789236 -0.309628 101
-2.186362 5.285367 -0.374891 101
-2.513300 5.127999 -0.838407 101
-2.674885 5.045144 -0.253315 101
-2.999861 4.882104 -0.586085 101
-2.507164 5.117657 -0.616068 101
-2.666181 5.030772 -0.165004 101
-2.997139 4.879516 -0.496973 101
-2.485046 5.080621 -0.523678 101
-2.663878 5.034100 -0.077540 101
-2.985182 4.866930 -0.407258 101
-2.494438 5.101996 -0.437983 101
-2.672625 5.052686 0.009976 101
-2.995631 4.885809 -0.320415 101
-2.337527 5.195405 -0.927209 100
-2.498035 5.111533 -0.175811 101
-2.839398 4.980413 -0.597499 101
-2.345037 5.214443 -0.629196 78
-2.499822 5.117370 -0.088475 101
-2.834877 4.974429 -0.507967 101
-2.330641 5.184762 -0.361623 101
-2.498097 5.116021 0.173947 101
-2.826789 4.962176 -0.242351 101
-3.152350 4.800684 -0.576281 101
-2.330132 5.185964 -0.274084 101
-2.652877 5.023527 -0.763052 101
-2.825484 4.961825 -0.154506 101
-3.151654 4.801383 -0.487331 101
-2.168361 5.268805 -0.549616 101
-2.649695 5.019546 -0.426779 101
-3.140081 4.785508 -0.220884 101
-2.176497 5.291104 -0.463338 78
-2.672094 5.064042 -0.342180 101
-2.996784 4.898779 -0.689860 64
-2.487615 5.107623 -0.350463 101
-2.657128 5.041842 0.097489 101
-2.982108 4.880320 -0.231711 101
-2.480073 5.094316 -0.262243 101
-2.809368 4.945126 -0.713447 86
-2.989043 4.893520 -0.144146 101
-2.342442 5.229825 -0.541687 101
-2.501123 5.139751 -0.000998 101
-2.821012 4.967567 -0.418511 101
-2.325133 5.193522 -0.449831 101
-2.494722 5.128789 0.086608 101
-2.823017 4.973045 -0.330725 101
-3.157012 4.823685 -0.672126 101
-2.338421 5.225558 -0.187915 100
-2.648552 5.033779 -0.603860 94
-2.806963 4.946703 -0.066512 101
-3.148108 4.811846 -0.399066 101
-2.161448 5.274684 -0.638391 101
-2.322114 5.191462 -0.099269 101
-2.657273 5.052416 -0.517513 101
-2.841827 5.010107 0.021111 101
-3.141537 4.803566 -0.309843 101
-2.488468 5.122502 -0.836083 101
-2.653538 5.047377 -0.252961 101
-2.989015 4.902739 -0.587306 101
-2.484073 5.115645 -0.614779 101
-2.656044 5.054206 -0.165468 101
-2.978015 4.886545 -0.496628 101
-2.467297 5.089264 -0.523678 101
-2.646289 5.043367 -0.077540 101
-2.968175 4.877320 -0.407258 101
-2.481831 5.121439 -0.438906 101
-2.653114 5.058442 0.009969 101
-2.974406 4.889412 -0.319969 101
-2.316162 5.196321 -0.925924 100
-2.481921 5.123820 -0.175935 101
-2.812204 4.972978 -0.595426 101
-2.984320 4.907568 -0.056140 1
-2.318731 5.204438 -0.627008 78
-2.478458 5.118865 -0.088351 101
-2.815536 4.980825 -0.507613 101
-2.315776 5.200159 -0.362131 101
-2.481965 5.128309 0.174070 101
-2.807484 4.968534 -0.242182 101
-3.142093 4.821662 -0.577479 101
-2.313641 5.197716 -0.274276 101
-2.635325 5.032756 -0.763052 101
-2.806180 4.968176 -0.154397 101
-3.132699 4.809016 -0.486993 101
-2.151459 5.280029 -0.550000 101
-2.634007 5.032299 -0.427079 101
-3.129901 4.806488 -0.221347 101
-2.156511 5.294976 -0.463015 78
-2.654401 5.073339 -0.342180 101
-2.977605 4.905815 -0.689383 64
-2.473242 5.123466 -0.350956 101
-2.639512 5.051086 0.097489 101
-2.960910 4.883864 -0.231387 101
-2.465749 5.110139 -0.262613 101
-2.788193 4.947987 -0.712451 86
-2.980233 4.917603 -0.144548 101
-2.327403 5.245250 -0.542440 101
-2.481429 5.144847 -0.000997 101
-2.803655 4.977384 -0.418511 101
-2.303757 5.194316 -0.449200 101
-2.482014 5.148274 0.086790 101
-2.803681 4.979390 -0.330494 101
-3.131499 4.821348 -0.670273 101
-2.320166 5.233689 -0.187915 100
-2.638324 5.057099 -0.605549 94
-2.791641 4.959957 -0.066559 101
-3.126946 4.816112 -0.398512 101
-2.143023 5.282197 -0.638391 101
-2.315320 5.225132 -0.099758 101
-2.637778 5.058128 -0.517152 101
-2.806669 4.988621 0.020980 101
-3.120401 4.807802 -0.309412 101
-2.470572 5.131157 -0.836083 101
-2.637751 5.060152 -0.253138 101
-2.961585 4.896119 -0.585271 101
-2.473099 5.138619 -0.616498 101
-2.634690 5.056355 -0.165236 101
-2.958877 4.893501 -0.496282 101
-2.452967 5.105026 -0.524415 101
-2.634206 5.063219 -0.077704 101
-2.949069 4.884236 -0.406974 101
-2.462212 5.126476 -0.438598 101
-2.631749 5.060575 0.009955 101
-2.953193 4.892927 -0.319522 101
-2.299604 5.207986 -0.926567 100
-2.460559 5.125244 -0.175688 101
-2.798720 4.989704 -0.596255 101
-2.983701 4.945353 -0.056453 65
-2.311788 5.237962 -0.630071 78
-2.467496 5.141909 -0.088599 101
-2.800081 4.994099 -0.507967 101
-2.292777 5.197254 -0.361369 101
-2.455403 5.118917 0.173459 138
-2.794032 4.985275 -0.242521 101
-3.131727 4.842627 -0.578677 101
-2.305155 5.227695 -0.275432 101
-2.614088 5.034888 -0.761987 101
-2.794684 4.988407 -0.154722 101
-3.115893 4.819922 -0.486993 101
-2.137484 5.298584 -0.551152 101
-2.614587 5.037922 -0.426779 101
-3.115273 4.820741 -0.221501 101
-2.133542 5.291378 -0.462046 78
-2.636675 5.082573 -0.342180 101
-2.962511 4.919581 -0.689860 64
-2.451896 5.124865 -0.350463 101
-2.625544 5.067371 0.097626 101
-2.943844 4.894170 -0.231387 101
-2.444448 5.111506 -0.262243 101
-2.770904 4.957689 -0.712451 86
-2.954808 4.914268 -0.144146 101
-2.307477 5.249697 -0.542064 101
-2.466905 5.160696 -0.000998 101
-2.790155 4.994105 -0.419096 101
-2.288819 5.209628 -0.449831 101
-2.469202 5.167733 0.086973 101
-2.792124 4.999605 -0.331187 101
-3.106040 4.818892 -0.668421 101
-2.301883 5.241756 -0.187915 100
-2.620655 5.066278 -0.605549 94
-2.784059 4.987134 -0.066793 101
-3.112277 4.830352 -0.398789 101
-2.126053 5.293334 -0.638836 101
-2.620106 5.067305 -0.517152 101
-2.804832 5.026331 0.021097 101
-3.103600 4.818665 -0.309412 101
-2.452646 5.139750 -0.836083 101
-2.618237 5.065778 -0.252961 101
-2.958810 4.930310 -0.588120 101
-2.451723 5.140041 -0.615639 101
-2.617024 5.065521 -0.165236 101
-2.945878 4.910634 -0.496973 101
-2.434311 5.109536 -0.524047 101
-2.608231 5.054155 -0.077432 101
-2.932857 4.893989 -0.406974 101
-2.443484 5.131012 -0.438290 101
-2.624122 5.087048 0.009990 101
-2.939004 4.906119 -0.319746 101
-2.283904 5.219200 -0.927209 100
-2.450423 5.147815 -0.176182 101
-2.778289 4.992005 -0.595426 101
-2.957011 4.938062 -0.056257 101
-2.289625 5.234671 -0.628758 78
-2.448713 5.146452 -0.088537 101
-2.781567 4.999875 -0.507613 101
-2.281926 5.219460 -0.362385 101
-2.438415 5.127031 0.173459 101
-2.773600 4.987528 -0.242182 101
-3.104900 4.836240 -0.576680 101
-2.283007 5.224328 -0.274854 101
-2.601007 5.050578 -0.763052 101
-2.778126 4.997647 -0.154722 101
-3.104198 4.836936 -0.487669 101
-2.111037 5.283460 -0.548847 101
-2.594215 5.039472 -0.426179 101
-3.107903 4.844502 -0.222118 101
-2.614326 5.080637 -0.341464 101
-2.944143 4.925969 -0.689383 64
-3.093452 4.823762 -0.133044 43
-2.441733 5.147397 -0.351448 101
-2.608726 5.076050 0.097626 101
-2.927598 4.903905 -0.231387 101
-2.427484 5.119583 -0.262243 101
-2.758298 4.973792 -0.713447 86
-2.938495 4.924039 -0.144146 101
-2.290056 5.257320 -0.542064 101
-2.446352 5.161618 -0.000997 101
-2.769710 4.996353 -0.418511 101
-2.268347 5.209877 -0.449200 101
-2.446914 5.165050 0.086790 101
-2.769723 4.998358 -0.330494 101
-3.085760 4.822472 -0.667494 101
-2.284488 5.249361 -0.187915 100
-2.596577 5.060784 -0.603860 94
-2.765567 4.992839 -0.066746 101
-3.096242 4.840646 -0.398789 101
-2.108488 5.300355 -0.638836 101
-2.603288 5.075966 -0.517152 101
-2.795899 5.049603 0.021155 101
-3.087603 4.828930 -0.309412 101
-2.442358 5.162165 -0.838407 101
-2.601424 5.074433 -0.252961 101
-2.928190 4.916164 -0.585271 101
-2.436365 5.151739 -0.616068 101
-2.600212 5.074171 -0.165236 101
-2.923461 4.910103 -0.495936 101
-2.419837 5.125217 -0.524784 101
-2.590549 5.063241 -0.077432 101
-2.915732 4.904210 -0.406974 101
-2.425544 5.139517 -0.438290 101
-2.602691 5.089062 0.009976 101
-2.921846 4.916357 -0.319746 101
-2.267236 5.230765 -0.927852 100
-2.430728 5.152724 -0.176058 101
-2.768531 5.015608 -0.597085 101
-2.941793 4.951796 -0.056296 101
-2.272923 5.246278 -0.629196 78
-2.422208 5.136879 -0.088226 101
-2.760251 5.002575 -0.506906 101
-2.262119 5.223724 -0.362131 101
-2.418811 5.131889 0.173337 101
-2.758116 5.000672 -0.242351 101
-3.092288 4.853754 -0.577479 101
-2.271128 5.246922 -0.275625 101
-2.579778 5.052554 -0.761987 101
-2.762616 5.010804 -0.154830 101
-3.078752 4.834282 -0.486317 101
-2.095543 5.298188 -0.549616 101
-2.582079 5.059139 -0.427079 101
-3.095296 4.862046 -0.222427 101
-2.602059 5.100382 -0.342180 101
-2.922918 4.929361 -0.688429 64
-3.063751 4.814264 -0.132487 101
-2.422120 5.152243 -0.351202 101
-2.583796 5.070837 0.097353 101
-2.910528 4.914056 -0.231387 101
-2.407977 5.124373 -0.262058 101
-2.740995 4.983349 -0.713447 86
-2.919326 4.930782 -0.144046 101
-2.273357 5.268900 -0.542440 101
-2.428407 5.170085 -0.000997 101
-2.750415 5.002448 -0.418219 101
-2.250245 5.217721 -0.449200 101
-2.427267 5.169893 0.086730 101
-2.750429 5.004445 -0.330263 101
-3.062608 4.823094 -0.666105 101
-2.577196 5.066219 -0.603437 94
-2.748224 5.002407 -0.066746 101
-3.081564 4.854731 -0.399066 101
-2.088635 5.303938 -0.638391 101
-2.576639 5.067210 -0.515346 101
-2.764890 5.034727 0.021053 101
-3.064416 4.829493 -0.308765 101
-2.421088 5.163434 -0.837245 101
-2.587439 5.090545 -0.253315 101
-2.917203 4.936562 -0.586492 101
-2.420188 5.163750 -0.616498 101
-2.582615 5.083150 -0.165236 101
-2.910485 4.927065 -0.496628 101
-2.396869 5.122810 -0.523678 101
-2.576477 5.079387 -0.077540 101
-2.896569 4.910922 -0.406689 101
-2.416036 5.166016 -0.439828 101
-2.590338 5.108819 0.009997 101
-2.904667 4.926526 -0.319746 101
-2.247406 5.235020 -0.927209 100
-2.407647 5.150312 -0.175688 101
-2.745275 5.014772 -0.595841 101
-2.908243 4.934468 -0.055984 101
-2.245189 5.232257 -0.626571 78
-2.402569 5.141679 -0.088164 101
-2.748510 5.022665 -0.507967 101
-2.243871 5.231588 -0.362131 101
-2.734890 4.999751 -0.241843 101
-3.073200 4.861155 -0.577080 101
-2.243353 5.232784 -0.274469 101
-2.560335 5.057991 -0.761454 101
-2.741272 5.013400 -0.154614 101
-3.063988 4.848369 -0.486655 101
-2.564404 5.068121 -0.427079 101
-3.069767 4.859304 -0.221810 101
-2.578833 5.098745 -0.341464 101
-2.911735 4.949803 -0.689860 64
-3.040522 4.814786 -0.132209 101
-2.400749 5.153429 -0.350709 101
-2.560670 5.069116 0.097147 187
-2.885258 4.910402 -0.230739 101
-2.393448 5.139992 -0.262428 101
-2.575070 5.099730 0.185527 1
-2.723583 4.992887 -0.713447 86
-2.898046 4.934046 -0.143845 101
-2.247127 5.258493 -0.540558 101
-2.412033 5.182157 -0.000998 101
-2.727207 5.001511 -0.417342 101
-2.232018 5.225544 -0.449200 101
-2.414267 5.189214 0.086912 200
-2.736766 5.021028 -0.330725 101
-3.047872 4.837117 -0.666568 101
-2.561287 5.078736 -0.603860 94
-2.730746 5.011969 -0.066746 101
-3.053965 4.848576 -0.397681 101
-2.072995 5.318604 -0.639281 101
-2.558935 5.076173 -0.515346 101
-2.737733 5.026783 0.020980 101
-3.045412 4.836780 -0.308550 101
-2.398047 5.161086 -0.835502 101
-2.558864 5.078134 -0.252251 101
-2.889892 4.929551 -0.584457 101
-2.400474 5.168560 -0.616068 101
-2.563057 5.088563 -0.165120 101
-2.883195 4.920004 -0.494898 101
-2.383998 5.141986 -0.524784 101
-2.565919 5.102643 -0.077758 101
-2.879409 4.921002 -0.406689 101
-2.387927 5.152707 -0.437983 101
-2.565303 5.103534 0.009969 101
-2.883420 4.929740 -0.319299 101
-2.235298 5.257366 -0.929780 100
-2.394696 5.169568 -0.176058 101
-2.729652 5.027821 -0.596255 101
-2.884944 4.934230 -0.055866 101
-2.234687 5.258359 -0.628758 78
-2.393009 5.168181 -0.088475 101
-2.727160 5.025225 -0.507260 101
-2.222474 5.232041 -0.361623 101
-2.713609 5.002241 -0.241503 101
-3.045637 4.854995 -0.575083 101
-2.231319 5.255294 -0.275239 101
-2.544442 5.070441 -0.761987 101
-2.714225 5.005363 -0.154073 101
-3.042810 4.852282 -0.485979 101
-2.544909 5.073476 -0.426779 101
-3.059155 4.880150 -0.222273 101
-2.555650 5.097008 -0.340748 101
-2.886432 4.946216 -0.687952 64
-3.027944 4.832147 -0.132394 101
-2.387765 5.172652 -0.351448 101
-2.542960 5.078023 0.097147 101
-2.874138 4.930802 -0.231225 101
-2.372144 5.141059 -0.262058 101
-2.559042 5.112263 0.185656 13
-2.708026 5.005854 -0.713945 86
-2.880805 4.944132 -0.143845 101
-2.234966 5.280975 -0.542064 101
-2.392254 5.186913 -0.000997 101
-2.707835 5.007491 -0.417050 101
-2.216871 5.240649 -0.449831 101
-2.387766 5.179449 0.086608 101
-2.721121 5.034063 -0.330956 101
-3.039394 4.861202 -0.668421 101
-2.543544 5.087646 -0.603860 94
-2.709432 5.014433 -0.066653 101
-3.034907 4.855822 -0.397404 101
-2.060140 5.340642 -0.641062 101
-2.546543 5.095765 -0.516430 101
-2.720170 5.036310 0.020980 101
-3.028509 4.847381 -0.308550 101
-2.378362 5.165831 -0.834921 101
-2.544694 5.094185 -0.252606 101
-2.868666 4.932729 -0.583643 101
-2.380755 5.173295 -0.615639 101
-2.538135 5.083170 -0.164656 101
-2.870009 4.936929 -0.495590 101
-2.360280 5.135387 -0.523309 101
-2.543629 5.100386 -0.077595 101
-2.863074 4.930524 -0.406689 101
-2.375822 5.171470 -0.438906 101
-2.548365 5.112013 0.009969 101
-2.871066 4.946183 -0.319746 101
-2.216319 5.261111 -0.929137 100
-2.375871 5.173848 -0.175935 101
-2.707304 5.026337 -0.595011 101
-2.862544 4.933392 -0.055749 101
-2.224952 5.284063 -0.630946 75
-2.372521 5.168818 -0.088351 101
-2.710481 5.034241 -0.507260 101
-2.208209 5.246741 -0.362131 101
-2.704582 5.025289 -0.242182 101
-3.037936 4.878582 -0.576680 101
-2.213880 5.262664 -0.275239 15
-2.522315 5.068203 -0.760389 101
-2.710872 5.038985 -0.154830 101
-3.030915 4.869112 -0.486655 101
-2.528070 5.081888 -0.426779 101
-3.030285 4.869905 -0.221347 101
-2.544067 5.116180 -0.341464 101
-2.872004 4.959198 -0.688429 64
-3.024576 4.862535 -0.132951 101
-2.365615 5.169651 -0.350709 101
-2.522548 5.079264 0.097010 101
-2.857771 4.940306 -0.231225 101
-2.353420 5.145263 -0.261874 101
-2.545631 5.127883 0.185916 101
-2.689534 5.011310 -0.713447 86
-2.866396 4.957120 -0.143945 101
-2.217441 5.288357 -0.542064 101
-2.375041 5.194817 -0.000997 101
-2.693100 5.019958 -0.417342 101
-2.196397 5.240616 -0.449200 101
-2.704412 5.043059 -0.330956 101
-3.025352 4.874629 -0.668884 101
-2.524892 5.092489 -0.603437 94
-2.690899 5.019865 -0.066606 101
-3.025099 4.876032 -0.398235 101
-2.529631 5.104181 -0.516430 101
-2.705343 5.048828 0.020994 101
-3.010313 4.854003 -0.308334 101
-2.366148 5.184490 -0.836664 101
-2.527787 5.102596 -0.252606 101
-2.848314 4.935322 -0.582829 101
-2.358635 5.170307 -0.614349 101
-2.530136 5.109474 -0.165236 101
-2.853621 4.946419 -0.495590 101
-2.347292 5.154469 -0.524415 101
-2.527582 5.112819 -0.077649 101
-2.849829 4.947402 -0.407258 101
-2.356103 5.176101 -0.438598 101
-2.526961 5.113706 0.009955 101
-2.845812 4.942330 -0.318852 101
-2.197941 5.268816 -0.929137 100
-2.357797 5.182109 -0.175935 101
-2.693491 5.042775 -0.595841 101
-2.841315 4.936420 -0.055671 101
-2.194252 5.262439 -0.627446 78
-2.344529 5.155224 -0.087978 101
-2.696645 5.050701 -0.507967 101
-2.189881 5.254417 -0.362131 101
-2.679497 5.020596 -0.241503 101
-3.010428 4.872227 -0.574683 101
-2.511624 5.091198 -0.762519 101
-2.691384 5.044889 -0.154722 101
-3.009712 4.872880 -0.485979 101
-2.506788 5.083527 -0.426179 101
-2.679751 5.025098 0.108355 12
-3.009067 4.873652 -0.221039 101
-2.527958 5.128611 -0.341703 101
-2.846763 4.955418 -0.686521 64
-3.007584 4.873064 -0.132951 101
-2.349204 5.181512 -0.350956 101
-2.508336 5.095215 0.097147 101
-2.838520 4.946785 -0.231063 101
-2.340393 5.164365 -0.262428 101
-2.513594 5.108041 0.184877 101
-2.664567 5.006653 -0.711456 89
-2.849075 4.967095 -0.143945 101
-2.205076 5.310777 -0.543570 101
-2.360194 5.210363 -0.000998 101
-2.677434 5.032850 -0.417635 101
-2.182676 5.259300 -0.450146 101
-2.684918 5.048943 -0.330725 101
-3.008318 4.885160 -0.668884 101
-2.507100 5.101271 -0.603437 94
-2.675237 5.032759 -0.066653 101
-3.010152 4.889960 -0.398512 101
-2.510042 5.109405 -0.516069 101
-2.683949 5.051176 0.020965 101
-2.997538 4.871285 -0.308765 101
-2.351297 5.199930 -0.837826 101
-2.513483 5.118562 -0.252961 101
-2.837000 4.955594 -0.584050 101
-2.347124 5.193004 -0.616068 101
-2.503476 5.100328 -0.164656 101
-2.836338 4.956350 -0.495590 101
-2.326009 5.155370 -0.523678 101
-2.502680 5.107244 -0.077432 101
-2.826604 4.946928 -0.406405 101
-2.341300 5.191566 -0.439213 101
-2.517894 5.140456 0.009990 101
-2.832504 4.959170 -0.319299 101
-2.182550 5.283754 -0.930422 100
-2.339694 5.190308 -0.175935 101
-2.675873 5.052146 -0.595841 101
-2.818117 4.935888 -0.055554 101
-2.188009 5.299467 -0.630946 75
-2.342950 5.199841 -0.088599 101
-2.673405 5.049520 -0.506906 101
-2.841178 4.978203 0.032013 1
-2.177618 5.276789 -0.363147 47
-2.660087 5.026386 -0.241334 101
-2.995483 4.886099 -0.575083 101
-2.492095 5.096373 -0.761987 101
-2.670019 5.047184 -0.154506 101
-2.992684 4.883357 -0.485979 101
